# .PCD v0.7 - Point Cloud Data file format
VERSION 0.7
FIELDS x y z rgba
SIZE 4 4 4 4
TYPE F F F U
COUNT 1 1 1 1
WIDTH 1213
HEIGHT 1
VIEWPOINT 0 0 0 1 0 0 0
POINTS 1213
DATA ascii
0.76500005 -0.41499993 1.7950001 8396816
0.76500005 -0.41499993 1.8050001 8396816
0.77500004 -0.48499995 1.7650001 9445392
0.77500004 -0.47499993 1.7650001 9445392
0.78500009 -0.48499995 1.7650001 9445392
0.78500009 -0.47499993 1.7650001 10498080
0.77500004 -0.48499995 1.7750001 10498080
0.77500004 -0.47499993 1.7750001 10493984
0.77500004 -0.47499993 1.7850001 10498080
0.77500004 -0.46499994 1.7650001 9445392
0.78500009 -0.46499994 1.7650001 10498080
0.77500004 -0.46499994 1.7750001 10498080
0.77500004 -0.45499995 1.7750001 10498080
0.78500009 -0.46499994 1.7750001 10498080
0.77500004 -0.44499993 1.7650001 10493968
0.77500004 -0.43499994 1.7650001 10493968
0.78500009 -0.44499993 1.7650001 10498080
0.78500009 -0.43499994 1.7650001 10498080
0.77500004 -0.44499993 1.7750001 10493984
0.77500004 -0.43499994 1.7750001 11546656
0.77500004 -0.43499994 1.7850001 10498080
0.78500009 -0.43499994 1.7750001 10493984
0.77500004 -0.42499995 1.7750001 10498080
0.77500004 -0.42499995 1.7850001 10498080
0.77500004 -0.41499993 1.7750001 11546656
0.77500004 -0.41499993 1.7850001 10498080
0.78500009 -0.42499995 1.7750001 10493984
0.78500009 -0.41499993 1.7750001 10493984
0.78500009 -0.41499993 1.7850001 10493984
0.73500007 -0.48499995 1.835 10498080
0.73500007 -0.47499993 1.835 10498080
0.73500007 -0.46499994 1.835 10498080
0.73500007 -0.46499994 1.845 10498080
0.73500007 -0.45499995 1.835 10498080
0.73500007 -0.45499995 1.845 10498080
0.73500007 -0.44499993 1.835 10498080
0.73500007 -0.44499993 1.845 10498080
0.73500007 -0.43499994 1.835 10498080
0.73500007 -0.43499994 1.845 10498080
0.73500007 -0.42499995 1.835 10498080
0.73500007 -0.42499995 1.845 10498080
0.73500007 -0.41499993 1.845 10498080
0.73500007 -0.42499995 1.855 10498080
0.73500007 -0.41499993 1.855 10498080
0.76500005 -0.40499994 1.7850001 8400928
0.76500005 -0.38499993 1.7850001 10498080
0.73500007 -0.40499994 1.7950001 10498080
0.73500007 -0.40499994 1.8050001 11550768
0.73500007 -0.39499995 1.7950001 10498080
0.73500007 -0.39499995 1.8050001 11550768
0.74500006 -0.40499994 1.7950001 10498080
0.74500006 -0.39499995 1.7950001 10498080
0.73500007 -0.40499994 1.825 10498080
0.73500007 -0.39499995 1.8150001 10498080
0.73500007 -0.39499995 1.825 10498096
0.73500007 -0.38499993 1.7950001 10498080
0.73500007 -0.37499994 1.7950001 11546656
0.74500006 -0.38499993 1.7950001 10498080
0.74500006 -0.38499993 1.8050001 10498096
0.74500006 -0.37499994 1.7950001 10498080
0.74500006 -0.37499994 1.8050001 9449504
0.73500007 -0.38499993 1.8150001 11550768
0.75500005 -0.40499994 1.7950001 10498080
0.75500005 -0.40499994 1.8050001 10498080
0.75500005 -0.39499995 1.8050001 10498080
0.76500005 -0.40499994 1.7950001 7348240
0.76500005 -0.40499994 1.8050001 7348240
0.76500005 -0.39499995 1.7950001 8396832
0.76500005 -0.39499995 1.8050001 6299664
0.76500005 -0.39499995 1.8150001 7348240
0.75500005 -0.38499993 1.8050001 8396832
0.75500005 -0.37499994 1.8050001 9445408
0.76500005 -0.38499993 1.7950001 8396832
0.76500005 -0.38499993 1.8050001 7348240
0.76500005 -0.37499994 1.7950001 9445408
0.76500005 -0.37499994 1.8050001 7348240
0.76500005 -0.38499993 1.8150001 7348256
0.76500005 -0.37499994 1.8150001 7348240
0.73500007 -0.36499995 1.7950001 11550768
0.73500007 -0.35499993 1.7950001 11550768
0.73500007 -0.35499993 1.8050001 11550768
0.74500006 -0.36499995 1.7950001 10498080
0.74500006 -0.36499995 1.8050001 10498096
0.74500006 -0.35499993 1.8050001 11550768
0.73500007 -0.34499994 1.8050001 11550768
0.74500006 -0.34499994 1.8050001 12599344
0.73500007 -0.33499995 1.8150001 12599344
0.74500006 -0.34499994 1.8150001 12599344
0.74500006 -0.33499995 1.8150001 11550768
0.74500006 -0.33499995 1.825 11550768
0.75500005 -0.36499995 1.8050001 9449504
0.76500005 -0.36499995 1.7950001 10498080
0.76500005 -0.36499995 1.8050001 8396832
0.76500005 -0.35499993 1.7950001 10498096
0.76500005 -0.35499993 1.8050001 8396832
0.75500005 -0.36499995 1.8150001 10498080
0.75500005 -0.35499993 1.8150001 11550768
0.76500005 -0.36499995 1.8150001 8396832
0.76500005 -0.35499993 1.8150001 7348240
0.76500005 -0.35499993 1.825 8396832
0.76500005 -0.34499994 1.7950001 11546672
0.76500005 -0.34499994 1.8050001 10498096
0.76500005 -0.33499995 1.7950001 11546672
0.76500005 -0.33499995 1.8050001 11546672
0.75500005 -0.34499994 1.8150001 11550768
0.75500005 -0.34499994 1.825 9449504
0.75500005 -0.33499995 1.825 8400928
0.76500005 -0.34499994 1.8150001 6299664
0.76500005 -0.34499994 1.825 6299664
0.76500005 -0.33499995 1.8150001 7348256
0.76500005 -0.33499995 1.825 6299664
0.77500004 -0.40499994 1.7850001 11546656
0.77500004 -0.39499995 1.7850001 10498080
0.78500009 -0.40499994 1.7750001 10498080
0.78500009 -0.40499994 1.7850001 11546656
0.78500009 -0.39499995 1.7850001 10498080
0.77500004 -0.38499993 1.7850001 11546656
0.77500004 -0.37499994 1.7850001 11546656
0.78500009 -0.38499993 1.7850001 10493984
0.79500008 -0.40499994 1.7850001 11546656
0.79500008 -0.39499995 1.7850001 10498080
0.80500007 -0.39499995 1.7850001 10493984
0.80500007 -0.38499993 1.7850001 8396816
0.80500007 -0.37499994 1.7850001 9449504
0.78500009 -0.39499995 1.7950001 10498080
0.77500004 -0.37499994 1.7950001 11546656
0.78500009 -0.38499993 1.7950001 10498080
0.78500009 -0.37499994 1.7950001 10493984
0.79500008 -0.39499995 1.7950001 10493984
0.79500008 -0.38499993 1.7950001 10493984
0.79500008 -0.37499994 1.7950001 9449504
0.80500007 -0.37499994 1.7950001 9445408
0.79500008 -0.36499995 1.7850001 9449504
0.79500008 -0.35499993 1.7850001 10498080
0.80500007 -0.36499995 1.7850001 10498080
0.80500007 -0.35499993 1.7850001 10498080
0.79500008 -0.33499995 1.7850001 10498080
0.80500007 -0.34499994 1.7850001 11546656
0.80500007 -0.33499995 1.7850001 11546656
0.77500004 -0.36499995 1.7950001 10498080
0.77500004 -0.35499993 1.7950001 11546656
0.78500009 -0.36499995 1.7950001 9445408
0.78500009 -0.35499993 1.7950001 10498080
0.77500004 -0.34499994 1.7950001 11546656
0.77500004 -0.34499994 1.8050001 11546672
0.77500004 -0.33499995 1.8050001 10493984
0.78500009 -0.34499994 1.8050001 10493984
0.78500009 -0.33499995 1.7950001 10498080
0.78500009 -0.33499995 1.8050001 10498080
0.79500008 -0.36499995 1.7950001 9449504
0.79500008 -0.35499993 1.7950001 10498080
0.80500007 -0.36499995 1.7950001 10498080
0.80500007 -0.35499993 1.7950001 10498080
0.79500008 -0.34499994 1.7950001 10498080
0.79500008 -0.33499995 1.7950001 10498080
0.80500007 -0.34499994 1.7950001 10498080
0.73500007 -0.40499994 1.835 10498080
0.73500007 -0.40499994 1.845 10498080
0.73500007 -0.39499995 1.835 10498080
0.73500007 -0.40499994 1.855 9449520
0.73500007 -0.39499995 1.855 9449520
0.73500007 -0.38499993 1.835 10498080
0.73500007 -0.37499994 1.845 9449520
0.73500007 -0.38499993 1.855 8400928
0.73500007 -0.38499993 1.865 6299680
0.73500007 -0.37499994 1.855 3149840
0.73500007 -0.37499994 1.865 4202512
0.75500005 -0.33499995 1.835 8396832
0.81500006 -0.33499995 1.7850001 10498080
0.90500003 -0.044999942 1.5650001 10535152
0.91500008 -0.034999941 1.575 10535136
0.66500008 -0.32499993 1.825 2105376
0.68500006 -0.28499994 1.825 2105376
0.70500004 -0.32499993 1.825 2105360
0.71500003 -0.32499993 1.8150001 8400944
0.71500003 -0.32499993 1.825 5251104
0.71500003 -0.31499994 1.825 7352368
0.72500008 -0.32499993 1.8150001 11550768
0.72500008 -0.31499994 1.8150001 11550768
0.72500008 -0.31499994 1.825 11550768
0.71500003 -0.30499995 1.825 7352368
0.71500003 -0.29499993 1.825 10502208
0.72500008 -0.30499995 1.8150001 11550768
0.72500008 -0.30499995 1.825 11550768
0.72500008 -0.29499993 1.825 12599344
0.71500003 -0.28499994 1.825 11550784
0.66500008 -0.32499993 1.835 2105376
0.66500008 -0.32499993 1.845 2105376
0.65500003 -0.31499994 1.865 2105376
0.65500003 -0.30499995 1.865 2105376
0.65500003 -0.29499993 1.865 2105376
0.66500008 -0.30499995 1.865 2105376
0.66500008 -0.29499993 1.865 2105376
0.67500007 -0.32499993 1.835 2105376
0.67500007 -0.32499993 1.845 2105376
0.68500006 -0.32499993 1.835 2105376
0.68500006 -0.32499993 1.845 2105376
0.67500007 -0.32499993 1.855 2105376
0.67500007 -0.31499994 1.865 2105376
0.68500006 -0.32499993 1.855 2105376
0.68500006 -0.31499994 1.855 2105376
0.68500006 -0.31499994 1.865 2105376
0.68500006 -0.30499995 1.845 2105376
0.67500007 -0.30499995 1.855 2105376
0.67500007 -0.30499995 1.865 2105376
0.67500007 -0.29499993 1.855 2105376
0.67500007 -0.29499993 1.865 2105376
0.68500006 -0.30499995 1.855 2105376
0.68500006 -0.30499995 1.865 2105376
0.68500006 -0.29499993 1.855 2105376
0.68500006 -0.29499993 1.865 2105376
0.65500003 -0.32499993 1.8850001 2105376
0.65500003 -0.31499994 1.875 2105376
0.66500008 -0.32499993 1.875 2105376
0.66500008 -0.32499993 1.8850001 2105376
0.66500008 -0.31499994 1.875 2105376
0.65500003 -0.30499995 1.875 2105376
0.65500003 -0.29499993 1.875 2105376
0.66500008 -0.30499995 1.875 2105376
0.66500008 -0.30499995 1.8850001 2105376
0.66500008 -0.29499993 1.875 2105376
0.66500008 -0.29499993 1.8850001 2105376
0.65500003 -0.29499993 1.8950001 2105376
0.67500007 -0.32499993 1.875 2105376
0.67500007 -0.32499993 1.8850001 2105376
0.67500007 -0.31499994 1.8850001 2105376
0.68500006 -0.32499993 1.8850001 2105376
0.68500006 -0.31499994 1.875 2105376
0.67500007 -0.31499994 1.8950001 2105376
0.68500006 -0.30499995 1.875 2105376
0.68500006 -0.29499993 1.875 2105376
0.65500003 -0.28499994 1.865 2105376
0.65500003 -0.27499995 1.865 2105376
0.66500008 -0.28499994 1.855 2105376
0.66500008 -0.28499994 1.865 2105376
0.66500008 -0.27499995 1.855 2105376
0.66500008 -0.27499995 1.865 2105376
0.66500008 -0.25499994 1.865 2105376
0.67500007 -0.28499994 1.835 2105376
0.67500007 -0.28499994 1.845 2105376
0.67500007 -0.27499995 1.835 2105376
0.68500006 -0.28499994 1.835 2105376
0.68500006 -0.27499995 1.835 2105376
0.67500007 -0.28499994 1.855 2105376
0.67500007 -0.28499994 1.865 2105376
0.67500007 -0.27499995 1.865 2105376
0.68500006 -0.28499994 1.855 2105376
0.68500006 -0.28499994 1.865 2105376
0.68500006 -0.27499995 1.855 2105376
0.68500006 -0.25499994 1.865 2105376
0.65500003 -0.28499994 1.8850001 2105376
0.65500003 -0.27499995 1.875 2105376
0.65500003 -0.27499995 1.8850001 2105376
0.66500008 -0.28499994 1.875 2105376
0.66500008 -0.28499994 1.8850001 2105376
0.66500008 -0.27499995 1.875 2105376
0.66500008 -0.27499995 1.8850001 2105376
0.65500003 -0.28499994 1.8950001 2105376
0.65500003 -0.28499994 1.9050001 1056800
0.66500008 -0.28499994 1.9050001 2105376
0.65500003 -0.26499993 1.875 2105376
0.65500003 -0.26499993 1.8850001 2105376
0.65500003 -0.25499994 1.8850001 2105376
0.66500008 -0.26499993 1.875 2105376
0.66500008 -0.26499993 1.8850001 2105376
0.66500008 -0.25499994 1.875 2105376
0.66500008 -0.25499994 1.8850001 2105376
0.65500003 -0.26499993 1.8950001 2105376
0.65500003 -0.25499994 1.8950001 2105376
0.66500008 -0.26499993 1.8950001 2105376
0.66500008 -0.25499994 1.8950001 2105376
0.67500007 -0.27499995 1.875 2105376
0.68500006 -0.27499995 1.875 2105376
0.67500007 -0.26499993 1.875 2105376
0.67500007 -0.25499994 1.875 2105376
0.68500006 -0.26499993 1.875 2105376
0.68500006 -0.26499993 1.8850001 2105376
0.68500006 -0.25499994 1.875 2105376
0.68500006 -0.25499994 1.8850001 2105376
0.68500006 -0.25499994 1.8950001 2105376
0.69500005 -0.32499993 1.845 2105360
0.69500005 -0.31499994 1.835 2105360
0.69500005 -0.31499994 1.845 2105360
0.70500004 -0.32499993 1.835 2105360
0.70500004 -0.32499993 1.845 2105360
0.70500004 -0.31499994 1.845 2105376
0.69500005 -0.32499993 1.855 2105360
0.69500005 -0.32499993 1.865 2105376
0.69500005 -0.31499994 1.865 2105376
0.70500004 -0.31499994 1.855 2105360
0.69500005 -0.30499995 1.835 2105376
0.69500005 -0.30499995 1.845 2105376
0.69500005 -0.29499993 1.835 2105376
0.69500005 -0.29499993 1.845 2105376
0.70500004 -0.30499995 1.845 2105360
0.70500004 -0.29499993 1.835 2105360
0.69500005 -0.30499995 1.855 2105376
0.69500005 -0.29499993 1.855 2105376
0.70500004 -0.30499995 1.855 2105376
0.70500004 -0.29499993 1.865 2105376
0.71500003 -0.32499993 1.835 2105360
0.71500003 -0.32499993 1.845 2105360
0.71500003 -0.31499994 1.845 2105360
0.71500003 -0.32499993 1.855 2105360
0.71500003 -0.31499994 1.855 2105360
0.71500003 -0.30499995 1.835 2105360
0.71500003 -0.29499993 1.835 5255200
0.71500003 -0.30499995 1.855 2105360
0.69500005 -0.28499994 1.835 2105376
0.69500005 -0.27499995 1.835 2105376
0.69500005 -0.27499995 1.845 2105376
0.70500004 -0.28499994 1.835 2105360
0.70500004 -0.28499994 1.845 2105376
0.70500004 -0.27499995 1.845 2105376
0.69500005 -0.28499994 1.855 2105376
0.69500005 -0.27499995 1.855 2105376
0.69500005 -0.27499995 1.865 2105376
0.70500004 -0.27499995 1.855 2105376
0.70500004 -0.27499995 1.865 2105376
0.69500005 -0.26499993 1.865 2105376
0.69500005 -0.25499994 1.865 2105376
0.70500004 -0.26499993 1.855 2105376
0.70500004 -0.26499993 1.865 2105376
0.70500004 -0.25499994 1.855 2105376
0.70500004 -0.25499994 1.865 2105376
0.71500003 -0.28499994 1.835 7352368
0.71500003 -0.27499995 1.835 10502208
0.71500003 -0.27499995 1.845 2105360
0.72500008 -0.28499994 1.835 12599360
0.72500008 -0.27499995 1.835 12599360
0.71500003 -0.26499993 1.835 11550784
0.71500003 -0.26499993 1.845 6303776
0.71500003 -0.25499994 1.835 11554880
0.71500003 -0.25499994 1.845 9453632
0.72500008 -0.26499993 1.835 12599360
0.72500008 -0.25499994 1.835 12603456
0.72500008 -0.25499994 1.845 12599360
0.71500003 -0.26499993 1.855 2105376
0.69500005 -0.27499995 1.875 2105376
0.69500005 -0.27499995 1.8850001 2105376
0.69500005 -0.26499993 1.875 2105376
0.69500005 -0.25499994 1.875 2105376
0.69500005 -0.25499994 1.8850001 2105376
0.70500004 -0.26499993 1.875 2105376
0.71500003 -0.25499994 1.875 2105376
0.68500006 -0.22499993 1.8150001 2105376
0.68500006 -0.22499993 1.825 2105376
0.66500008 -0.24499995 1.855 2105376
0.66500008 -0.24499995 1.865 2109472
0.66500008 -0.23499994 1.855 2105376
0.66500008 -0.23499994 1.865 2105376
0.65500003 -0.22499993 1.865 3158064
0.65500003 -0.21499994 1.855 4210752
0.66500008 -0.22499993 1.865 2109472
0.66500008 -0.21499994 1.855 2109472
0.66500008 -0.21499994 1.865 4214864
0.67500007 -0.23499994 1.845 2105376
0.68500006 -0.24499995 1.835 2105376
0.68500006 -0.24499995 1.845 2105376
0.68500006 -0.23499994 1.835 2105376
0.68500006 -0.23499994 1.845 2105376
0.67500007 -0.24499995 1.855 2105376
0.67500007 -0.23499994 1.855 2105376
0.67500007 -0.23499994 1.865 2105376
0.68500006 -0.24499995 1.855 2105376
0.68500006 -0.24499995 1.865 2105376
0.68500006 -0.22499993 1.835 2105376
0.68500006 -0.22499993 1.845 2105376
0.67500007 -0.22499993 1.855 2105376
0.67500007 -0.22499993 1.865 2105376
0.67500007 -0.21499994 1.855 2105376
0.67500007 -0.21499994 1.865 3158064
0.68500006 -0.22499993 1.855 2105376
0.68500006 -0.22499993 1.865 2105376
0.68500006 -0.21499994 1.855 2105376
0.68500006 -0.21499994 1.865 2105376
0.65500003 -0.23499994 1.875 2105376
0.66500008 -0.24499995 1.875 2105376
0.66500008 -0.23499994 1.875 2105376
0.66500008 -0.23499994 1.8850001 2109472
0.65500003 -0.24499995 1.8950001 2105376
0.66500008 -0.24499995 1.8950001 2105376
0.66500008 -0.24499995 1.9050001 2105376
0.66500008 -0.22499993 1.875 2109488
0.66500008 -0.21499994 1.875 13684944
0.66500008 -0.21499994 1.8950001 6320224
0.67500007 -0.21499994 1.8850001 11583680
0.68500006 -0.21499994 1.875 9474192
0.67500007 -0.21499994 1.8950001 12636368
0.68500006 -0.20499994 1.855 8421504
0.68500006 -0.20499994 1.865 7372928
0.68500006 -0.20499994 1.8950001 5263440
0.69500005 -0.23499994 1.835 2105376
0.69500005 -0.24499995 1.855 2105376
0.69500005 -0.23499994 1.855 2105376
0.70500004 -0.24499995 1.855 2105376
0.70500004 -0.24499995 1.865 2105376
0.70500004 -0.23499994 1.865 2105376
0.69500005 -0.22499993 1.845 2105376
0.69500005 -0.21499994 1.845 2105376
0.69500005 -0.22499993 1.855 2105376
0.69500005 -0.21499994 1.855 3158048
0.70500004 -0.22499993 1.865 3153952
0.70500004 -0.21499994 1.855 3153952
0.70500004 -0.21499994 1.865 4206624
0.71500003 -0.24499995 1.845 10506304
0.71500003 -0.23499994 1.845 11554880
0.72500008 -0.24499995 1.845 12603456
0.72500008 -0.23499994 1.845 12603456
0.71500003 -0.23499994 1.855 10502208
0.71500003 -0.23499994 1.865 3153952
0.72500008 -0.23499994 1.855 12603456
0.71500003 -0.22499993 1.855 10502208
0.71500003 -0.21499994 1.855 12603472
0.71500003 -0.21499994 1.865 12603472
0.72500008 -0.22499993 1.855 12603456
0.72500008 -0.21499994 1.855 13652048
0.72500008 -0.21499994 1.865 14704720
0.69500005 -0.20499994 1.845 5267552
0.69500005 -0.20499994 1.855 9474192
0.70500004 -0.20499994 1.855 5263440
0.70500004 -0.20499994 1.865 9465968
0.71500003 -0.20499994 1.865 15757424
0.72500008 -0.20499994 1.865 15753312
0.71500003 -0.18499994 1.865 2105392
0.72500008 -0.18499994 1.865 2105376
0.69500005 -0.20499994 1.875 7368816
0.69500005 -0.20499994 1.8850001 5267552
0.71500003 -0.20499994 1.875 13664384
0.71500003 -0.19499993 1.875 3145744
0.72500008 -0.20499994 1.875 15761536
0.72500008 -0.19499993 1.875 5251120
0.72500008 -0.19499993 1.8850001 3153952
0.73500007 -0.32499993 1.8150001 11550768
0.73500007 -0.31499994 1.8150001 12599344
0.73500007 -0.31499994 1.825 12599344
0.74500006 -0.32499993 1.8150001 11550768
0.74500006 -0.32499993 1.825 10498096
0.74500006 -0.31499994 1.825 11550768
0.73500007 -0.30499995 1.825 12599344
0.73500007 -0.29499993 1.825 12599360
0.76500005 -0.32499993 1.8050001 11546672
0.76500005 -0.31499994 1.8050001 11546672
0.75500005 -0.32499993 1.825 7348256
0.75500005 -0.31499994 1.825 6299680
0.76500005 -0.32499993 1.8150001 8400928
0.76500005 -0.32499993 1.825 6299664
0.76500005 -0.31499994 1.8150001 10498096
0.76500005 -0.31499994 1.825 7348240
0.76500005 -0.30499995 1.8050001 11546672
0.75500005 -0.30499995 1.8150001 10498096
0.75500005 -0.30499995 1.825 6299664
0.75500005 -0.29499993 1.825 8400928
0.76500005 -0.30499995 1.8150001 11546672
0.76500005 -0.29499993 1.8150001 11546672
0.75500005 -0.28499994 1.8150001 11546672
0.75500005 -0.28499994 1.825 9449520
0.75500005 -0.27499995 1.8150001 12599344
0.75500005 -0.27499995 1.825 10498096
0.76500005 -0.28499994 1.8150001 11546672
0.76500005 -0.28499994 1.825 11550768
0.76500005 -0.27499995 1.8150001 11546672
0.75500005 -0.26499993 1.825 11550768
0.75500005 -0.25499994 1.825 12599344
0.76500005 -0.26499993 1.825 11550768
0.76500005 -0.25499994 1.825 11546672
0.80500007 -0.32499993 1.7850001 11546656
0.77500004 -0.32499993 1.8050001 10498080
0.77500004 -0.31499994 1.8050001 10498080
0.78500009 -0.32499993 1.7950001 10498080
0.78500009 -0.32499993 1.8050001 10498080
0.78500009 -0.31499994 1.8050001 11546656
0.77500004 -0.30499995 1.8050001 11546656
0.77500004 -0.29499993 1.8050001 11546672
0.78500009 -0.30499995 1.8050001 11546672
0.78500009 -0.29499993 1.7950001 11546672
0.78500009 -0.29499993 1.8050001 11546672
0.77500004 -0.30499995 1.8150001 11546672
0.77500004 -0.29499993 1.8150001 10498080
0.79500008 -0.32499993 1.7950001 11546656
0.79500008 -0.31499994 1.7950001 11546656
0.79500008 -0.31499994 1.8050001 11546656
0.80500007 -0.31499994 1.7950001 11546656
0.79500008 -0.30499995 1.7950001 11546656
0.79500008 -0.29499993 1.7950001 11546672
0.80500007 -0.30499995 1.7950001 11546672
0.80500007 -0.29499993 1.7950001 11546672
0.77500004 -0.28499994 1.8050001 11546672
0.78500009 -0.28499994 1.8050001 11546672
0.78500009 -0.27499995 1.8050001 11546672
0.77500004 -0.28499994 1.8150001 11546672
0.77500004 -0.27499995 1.8150001 11546672
0.78500009 -0.26499993 1.8050001 11546672
0.77500004 -0.26499993 1.8150001 11546672
0.77500004 -0.26499993 1.825 10498080
0.77500004 -0.25499994 1.8150001 11546672
0.77500004 -0.25499994 1.825 11546672
0.78500009 -0.26499993 1.8150001 11546672
0.78500009 -0.25499994 1.8150001 12595248
0.79500008 -0.28499994 1.7950001 11546672
0.79500008 -0.28499994 1.8050001 11546672
0.79500008 -0.27499995 1.8050001 11546672
0.80500007 -0.28499994 1.7950001 11546672
0.80500007 -0.27499995 1.8050001 12595248
0.79500008 -0.26499993 1.8050001 12595248
0.79500008 -0.25499994 1.8050001 12595248
0.80500007 -0.26499993 1.8050001 12599344
0.80500007 -0.25499994 1.8050001 12599344
0.79500008 -0.25499994 1.8150001 12595248
0.74500006 -0.30499995 1.835 11550768
0.74500006 -0.29499993 1.835 10502192
0.75500005 -0.31499994 1.835 8400928
0.76500005 -0.32499993 1.835 6299680
0.75500005 -0.30499995 1.835 8400928
0.75500005 -0.29499993 1.835 8396832
0.73500007 -0.28499994 1.835 12599360
0.73500007 -0.27499995 1.835 11550784
0.74500006 -0.28499994 1.835 10498096
0.74500006 -0.27499995 1.835 10502192
0.73500007 -0.26499993 1.835 12599360
0.73500007 -0.25499994 1.845 12599360
0.74500006 -0.26499993 1.835 11550768
0.74500006 -0.26499993 1.845 11550768
0.74500006 -0.25499994 1.845 10502192
0.75500005 -0.28499994 1.835 7348256
0.75500005 -0.27499995 1.835 8400928
0.75500005 -0.26499993 1.835 10498096
0.75500005 -0.25499994 1.835 10498096
0.75500005 -0.25499994 1.845 9449504
0.75500005 -0.24499995 1.825 12595248
0.76500005 -0.24499995 1.825 11546672
0.77500004 -0.24499995 1.825 11546672
0.77500004 -0.23499994 1.825 12599344
0.78500009 -0.24499995 1.8150001 12599344
0.78500009 -0.24499995 1.825 12599344
0.78500009 -0.23499994 1.8150001 12599344
0.78500009 -0.23499994 1.825 12599344
0.77500004 -0.22499993 1.825 12599344
0.78500009 -0.22499993 1.825 12599360
0.78500009 -0.21499994 1.825 13647936
0.79500008 -0.24499995 1.8050001 12599344
0.79500008 -0.24499995 1.8150001 12599344
0.79500008 -0.23499994 1.8150001 12599344
0.79500008 -0.23499994 1.825 12599344
0.80500007 -0.24499995 1.8150001 12599344
0.80500007 -0.23499994 1.8150001 12599344
0.79500008 -0.22499993 1.8150001 12599344
0.79500008 -0.22499993 1.825 13647920
0.79500008 -0.21499994 1.825 13647936
0.80500007 -0.22499993 1.8150001 12599344
0.80500007 -0.22499993 1.825 13647936
0.80500007 -0.21499994 1.825 13647936
0.80500007 -0.20499994 1.825 13647936
0.73500007 -0.24499995 1.845 11550784
0.73500007 -0.23499994 1.845 12599360
0.74500006 -0.24499995 1.845 10498096
0.74500006 -0.23499994 1.845 10502192
0.74500006 -0.22499993 1.845 11546672
0.73500007 -0.22499993 1.855 12599360
0.73500007 -0.21499994 1.855 12599360
0.74500006 -0.22499993 1.855 11550768
0.74500006 -0.21499994 1.855 11550784
0.75500005 -0.24499995 1.835 11550768
0.75500005 -0.24499995 1.845 9449520
0.75500005 -0.23499994 1.835 12599360
0.75500005 -0.23499994 1.845 10498096
0.76500005 -0.24499995 1.835 11546672
0.76500005 -0.23499994 1.835 12599360
0.75500005 -0.22499993 1.835 12599360
0.75500005 -0.22499993 1.845 12599360
0.75500005 -0.21499994 1.835 13647936
0.75500005 -0.21499994 1.845 13652032
0.76500005 -0.22499993 1.835 12599344
0.76500005 -0.21499994 1.835 13647936
0.73500007 -0.20499994 1.855 14700624
0.73500007 -0.20499994 1.865 15753312
0.74500006 -0.20499994 1.855 13647936
0.74500006 -0.20499994 1.865 15753312
0.74500006 -0.19499993 1.855 13647936
0.74500006 -0.19499993 1.865 13660272
0.73500007 -0.17499994 1.835 2105392
0.73500007 -0.17499994 1.845 4206656
0.73500007 -0.17499994 1.865 2105392
0.74500006 -0.17499994 1.855 4210752
0.75500005 -0.20499994 1.845 14700624
0.76500005 -0.20499994 1.835 13647936
0.76500005 -0.20499994 1.845 13647936
0.76500005 -0.19499993 1.845 14700624
0.75500005 -0.20499994 1.855 14700624
0.75500005 -0.19499993 1.855 15753312
0.76500005 -0.19499993 1.855 15749200
0.75500005 -0.18499994 1.865 11559024
0.76500005 -0.18499994 1.865 13656176
0.73500007 -0.20499994 1.875 15757424
0.73500007 -0.19499993 1.875 8409168
0.74500006 -0.19499993 1.875 11559024
0.74500006 -0.18499994 1.875 5259344
0.74500006 -0.18499994 1.8850001 2105376
0.75500005 -0.18499994 1.875 4206640
0.76500005 -0.18499994 1.875 4202544
0.77500004 -0.24499995 1.835 11546672
0.77500004 -0.23499994 1.835 11546672
0.77500004 -0.22499993 1.835 12599344
0.77500004 -0.21499994 1.835 13647936
0.78500009 -0.21499994 1.835 13647936
0.79500008 -0.21499994 1.835 13647936
0.77500004 -0.20499994 1.835 13647936
0.77500004 -0.19499993 1.835 14700624
0.77500004 -0.19499993 1.845 14700624
0.78500009 -0.20499994 1.835 13647936
0.78500009 -0.19499993 1.835 14696512
0.78500009 -0.19499993 1.845 14696528
0.77500004 -0.18499994 1.845 15749216
0.78500009 -0.18499994 1.845 15749216
0.77500004 -0.18499994 1.855 15753312
0.77500004 -0.18499994 1.865 11559024
0.77500004 -0.17499994 1.865 10514560
0.78500009 -0.18499994 1.855 15757424
0.78500009 -0.17499994 1.865 14721200
0.79500008 -0.20499994 1.835 13647936
0.79500008 -0.19499993 1.835 14700608
0.79500008 -0.19499993 1.845 14700608
0.80500007 -0.20499994 1.835 13647936
0.80500007 -0.19499993 1.835 14700608
0.80500007 -0.19499993 1.845 14700608
0.79500008 -0.18499994 1.845 15753312
0.80500007 -0.18499994 1.845 15753312
0.79500008 -0.18499994 1.855 15757424
0.79500008 -0.17499994 1.855 12607584
0.80500007 -0.17499994 1.855 14708848
0.78500009 -0.17499994 1.875 12632272
0.77500004 -0.17499994 1.8950001 2109488
0.66500008 -0.094999939 1.625 3158080
0.67500007 -0.10499994 1.6350001 2109488
0.69500005 -0.094999939 1.6650001 3158080
0.71500003 -0.094999939 1.6750001 3162176
0.75500005 -0.05499994 1.735 11583680
0.72500008 -0.16499995 1.8150001 4210752
0.73500007 -0.16499995 1.8150001 2105392
0.73500007 -0.13499995 1.7950001 3158064
0.76500005 -0.12499994 1.7850001 3158080
0.73500007 -0.16499995 1.835 2105392
0.77500004 -0.16499995 1.855 10531008
0.76500005 -0.064999938 1.7750001 11583680
0.92500007 -0.17499994 1.745 15790320
0.81500006 -0.32499993 1.7850001 11546656
0.81500006 -0.31499994 1.7850001 11546672
0.82500005 -0.32499993 1.7850001 8396832
0.81500006 -0.30499995 1.7850001 12599344
0.81500006 -0.32499993 1.7950001 11546672
0.81500006 -0.31499994 1.7950001 11546672
0.82500005 -0.32499993 1.7950001 11546656
0.82500005 -0.31499994 1.7950001 11546656
0.81500006 -0.30499995 1.7950001 11546672
0.81500006 -0.29499993 1.7950001 11546672
0.82500005 -0.30499995 1.7950001 11546656
0.82500005 -0.29499993 1.7950001 11546656
0.82500005 -0.29499993 1.8050001 11546672
0.83500004 -0.31499994 1.7950001 9445408
0.83500004 -0.31499994 1.8050001 11546672
0.84500009 -0.31499994 1.8050001 11546656
0.83500004 -0.30499995 1.7950001 11546656
0.83500004 -0.30499995 1.8050001 11546656
0.83500004 -0.29499993 1.7950001 11546672
0.83500004 -0.29499993 1.8050001 11546672
0.84500009 -0.30499995 1.7950001 8396832
0.84500009 -0.30499995 1.8050001 11546672
0.84500009 -0.29499993 1.8050001 11546672
0.81500006 -0.28499994 1.7950001 12595248
0.81500006 -0.28499994 1.8050001 12595248
0.81500006 -0.27499995 1.8050001 12595248
0.82500005 -0.28499994 1.8050001 11546672
0.82500005 -0.27499995 1.8050001 11546672
0.81500006 -0.26499993 1.8050001 12595248
0.81500006 -0.25499994 1.8050001 11546672
0.82500005 -0.26499993 1.8050001 11546672
0.82500005 -0.25499994 1.8050001 12595248
0.81500006 -0.25499994 1.8150001 12599344
0.82500005 -0.26499993 1.8150001 12595248
0.82500005 -0.25499994 1.8150001 12599344
0.83500004 -0.28499994 1.8050001 11546672
0.83500004 -0.27499995 1.8050001 11546672
0.84500009 -0.28499994 1.8050001 11546672
0.84500009 -0.28499994 1.8150001 11546672
0.84500009 -0.27499995 1.8150001 11546672
0.83500004 -0.26499993 1.8150001 11546672
0.83500004 -0.25499994 1.8150001 12599344
0.84500009 -0.26499993 1.8150001 11546672
0.84500009 -0.25499994 1.8150001 11546656
0.85500008 -0.29499993 1.8050001 10498080
0.85500008 -0.29499993 1.8150001 10498080
0.86500007 -0.29499993 1.8150001 10498080
0.85500008 -0.28499994 1.8050001 10498080
0.85500008 -0.28499994 1.8150001 11546656
0.85500008 -0.27499995 1.8150001 11546656
0.86500007 -0.28499994 1.8150001 10498080
0.86500007 -0.27499995 1.8150001 10498080
0.85500008 -0.26499993 1.8150001 10498080
0.85500008 -0.25499994 1.8150001 10498080
0.86500007 -0.26499993 1.8150001 10498080
0.86500007 -0.25499994 1.8150001 10498080
0.87500006 -0.28499994 1.8050001 10498080
0.87500006 -0.27499995 1.8050001 10498080
0.88500005 -0.27499995 1.8050001 10498080
0.87500006 -0.28499994 1.8150001 10498080
0.87500006 -0.27499995 1.8150001 10498080
0.88500005 -0.27499995 1.8150001 10498080
0.87500006 -0.26499993 1.8050001 10498080
0.87500006 -0.25499994 1.8050001 10498080
0.88500005 -0.26499993 1.8050001 10498080
0.88500005 -0.25499994 1.7950001 10498080
0.88500005 -0.25499994 1.8050001 10498080
0.87500006 -0.26499993 1.8150001 10498080
0.87500006 -0.25499994 1.8150001 10498080
0.81500006 -0.24499995 1.8150001 12599344
0.81500006 -0.23499994 1.8150001 12599344
0.81500006 -0.23499994 1.825 12599344
0.82500005 -0.24499995 1.8150001 12599344
0.82500005 -0.23499994 1.8150001 12599344
0.82500005 -0.23499994 1.825 12599344
0.81500006 -0.22499993 1.825 12599360
0.81500006 -0.21499994 1.825 12599360
0.82500005 -0.22499993 1.825 12599344
0.82500005 -0.21499994 1.825 12599344
0.83500004 -0.24499995 1.8150001 11550768
0.83500004 -0.23499994 1.8150001 11546672
0.83500004 -0.23499994 1.825 11550768
0.84500009 -0.24499995 1.8150001 11546656
0.84500009 -0.23499994 1.8150001 10498080
0.84500009 -0.23499994 1.825 11546672
0.83500004 -0.22499993 1.825 11546672
0.83500004 -0.21499994 1.825 11546672
0.84500009 -0.22499993 1.825 11546672
0.84500009 -0.21499994 1.825 11546672
0.81500006 -0.20499994 1.825 13647936
0.82500005 -0.20499994 1.825 12599344
0.83500004 -0.20499994 1.825 11546672
0.84500009 -0.20499994 1.825 11546672
0.86500007 -0.24499995 1.8050001 10498080
0.85500008 -0.24499995 1.8150001 10498080
0.85500008 -0.23499994 1.8150001 10498080
0.85500008 -0.23499994 1.825 10498080
0.86500007 -0.24499995 1.8150001 10498080
0.86500007 -0.23499994 1.8150001 10498080
0.85500008 -0.22499993 1.8150001 10498080
0.85500008 -0.22499993 1.825 10498096
0.85500008 -0.21499994 1.8150001 11546672
0.85500008 -0.21499994 1.825 11546672
0.86500007 -0.22499993 1.8150001 10498080
0.86500007 -0.21499994 1.8150001 11546672
0.86500007 -0.21499994 1.825 11550768
0.87500006 -0.24499995 1.7950001 10498080
0.87500006 -0.24499995 1.8050001 10498080
0.87500006 -0.23499994 1.8050001 10498080
0.88500005 -0.24499995 1.7950001 10498080
0.88500005 -0.23499994 1.7950001 10498080
0.88500005 -0.23499994 1.8050001 10498080
0.87500006 -0.22499993 1.8050001 10498080
0.88500005 -0.22499993 1.8050001 10498096
0.88500005 -0.21499994 1.8050001 12599344
0.87500006 -0.22499993 1.8150001 10498080
0.87500006 -0.21499994 1.8150001 11546672
0.88500005 -0.21499994 1.8150001 12599344
0.85500008 -0.20499994 1.825 12599344
0.85500008 -0.19499993 1.825 14696512
0.86500007 -0.20499994 1.8150001 12599344
0.86500007 -0.20499994 1.825 13647936
0.87500006 -0.20499994 1.8150001 13647936
0.87500006 -0.20499994 1.825 14700608
0.88500005 -0.20499994 1.8150001 14700608
0.88500005 -0.20499994 1.825 15753296
0.83500004 -0.21499994 1.835 11546672
0.81500006 -0.20499994 1.835 13647936
0.81500006 -0.19499993 1.835 14696512
0.82500005 -0.20499994 1.835 13647936
0.82500005 -0.19499993 1.835 13647936
0.81500006 -0.18499994 1.845 15753312
0.82500005 -0.18499994 1.835 14696512
0.82500005 -0.18499994 1.845 14700624
0.81500006 -0.17499994 1.855 14708864
0.82500005 -0.17499994 1.855 14712976
0.83500004 -0.20499994 1.835 12595248
0.83500004 -0.19499993 1.835 12599344
0.84500009 -0.19499993 1.835 13647936
0.83500004 -0.18499994 1.845 15753312
0.84500009 -0.18499994 1.845 15757408
0.83500004 -0.17499994 1.855 14717072
0.84500009 -0.18499994 1.855 15753312
0.84500009 -0.17499994 1.855 13668496
0.84500009 -0.17499994 1.865 15782096
0.85500008 -0.19499993 1.835 15753296
0.86500007 -0.19499993 1.835 15757408
0.86500007 -0.19499993 1.845 15757424
0.85500008 -0.18499994 1.845 15753312
0.86500007 -0.18499994 1.845 14700624
0.86500007 -0.17499994 1.845 14696512
0.85500008 -0.18499994 1.855 14700624
0.85500008 -0.17499994 1.855 14721184
0.86500007 -0.17499994 1.855 14696528
0.87500006 -0.19499993 1.835 15753296
0.87500006 -0.19499993 1.845 15753296
0.88500005 -0.19499993 1.835 14696512
0.88500005 -0.19499993 1.845 13647920
0.87500006 -0.18499994 1.845 13647936
0.87500006 -0.17499994 1.845 14700624
0.88500005 -0.18499994 1.845 13647920
0.88500005 -0.17499994 1.845 15749200
0.88500005 -0.17499994 1.855 15753312
0.90500003 -0.25499994 1.7850001 10498080
0.89500004 -0.26499993 1.7950001 8396832
0.89500004 -0.26499993 1.8050001 10498080
0.89500004 -0.25499994 1.7950001 10498080
0.90500003 -0.25499994 1.7950001 10498080
0.91500008 -0.25499994 1.7950001 10498080
0.92500007 -0.25499994 1.7950001 10498080
0.92500007 -0.23499994 1.7850001 9445408
0.92500007 -0.22499993 1.7850001 10498080
0.89500004 -0.24499995 1.7950001 10498080
0.89500004 -0.23499994 1.7950001 9449504
0.89500004 -0.23499994 1.8050001 10498080
0.90500003 -0.24499995 1.7950001 10498080
0.90500003 -0.23499994 1.7950001 9449504
0.90500003 -0.23499994 1.8050001 9449504
0.89500004 -0.22499993 1.8050001 10498080
0.89500004 -0.21499994 1.8050001 12599344
0.90500003 -0.22499993 1.7950001 10498080
0.90500003 -0.22499993 1.8050001 10498080
0.90500003 -0.21499994 1.7950001 12599344
0.90500003 -0.21499994 1.8050001 13647920
0.91500008 -0.24499995 1.7950001 9449504
0.91500008 -0.23499994 1.7950001 9449504
0.92500007 -0.24499995 1.7950001 9445408
0.92500007 -0.23499994 1.7950001 9449504
0.91500008 -0.22499993 1.7950001 10498080
0.91500008 -0.21499994 1.7950001 13647920
0.91500008 -0.21499994 1.8050001 13647936
0.92500007 -0.22499993 1.7950001 10498080
0.92500007 -0.21499994 1.7950001 13647920
0.92500007 -0.17499994 1.7650001 12632256
0.89500004 -0.20499994 1.8050001 14700608
0.90500003 -0.20499994 1.8050001 15749184
0.89500004 -0.20499994 1.8150001 15749200
0.89500004 -0.20499994 1.825 15753312
0.89500004 -0.19499993 1.825 14700608
0.90500003 -0.20499994 1.8150001 15749200
0.90500003 -0.20499994 1.825 15749200
0.90500003 -0.19499993 1.825 14696512
0.90500003 -0.18499994 1.825 13647936
0.91500008 -0.20499994 1.8050001 15749200
0.92500007 -0.20499994 1.7950001 15749200
0.92500007 -0.20499994 1.8050001 15749200
0.91500008 -0.20499994 1.8150001 15749200
0.91500008 -0.20499994 1.825 15749200
0.91500008 -0.19499993 1.825 14696512
0.92500007 -0.20499994 1.8150001 15749184
0.92500007 -0.19499993 1.825 13647936
0.91500008 -0.18499994 1.825 14696512
0.92500007 -0.18499994 1.825 14696512
0.93500006 -0.24499995 1.7850001 4198416
0.93500006 -0.23499994 1.7850001 9449504
0.94500005 -0.23499994 1.7850001 9449504
0.93500006 -0.22499993 1.7850001 10498080
0.94500005 -0.22499993 1.7850001 9449504
0.94500005 -0.21499994 1.7850001 13647920
0.95500004 -0.23499994 1.7850001 9445408
0.95500004 -0.22499993 1.7850001 9449504
0.95500004 -0.21499994 1.7850001 12595248
0.96500003 -0.22499993 1.7750001 8400928
0.96500003 -0.22499993 1.7850001 8400928
0.96500003 -0.21499994 1.7750001 9449504
0.96500003 -0.21499994 1.7850001 11546656
0.93500006 -0.23499994 1.7950001 9445408
0.93500006 -0.22499993 1.7950001 10498080
0.93500006 -0.21499994 1.7950001 13647920
0.94500005 -0.21499994 1.7950001 13647920
0.96500003 -0.20499994 1.7650001 12619920
0.95500004 -0.20499994 1.7850001 13647920
0.96500003 -0.20499994 1.7750001 12615808
0.96500003 -0.20499994 1.7850001 12595248
0.96500003 -0.19499993 1.7750001 11554896
0.96500003 -0.19499993 1.7850001 11550784
0.93500006 -0.20499994 1.7950001 14700608
0.93500006 -0.20499994 1.8050001 15749184
0.94500005 -0.20499994 1.7950001 14696512
0.94500005 -0.20499994 1.8050001 14696512
0.94500005 -0.19499993 1.8050001 14696512
0.93500006 -0.20499994 1.8150001 14696512
0.93500006 -0.19499993 1.8150001 14696512
0.93500006 -0.19499993 1.825 14696512
0.94500005 -0.19499993 1.8150001 14696512
0.94500005 -0.17499994 1.8050001 3158064
0.93500006 -0.18499994 1.8150001 14700624
0.93500006 -0.18499994 1.825 14700624
0.93500006 -0.17499994 1.825 15786224
0.94500005 -0.18499994 1.8150001 13647936
0.94500005 -0.18499994 1.825 15753312
0.94500005 -0.17499994 1.8150001 11567248
0.94500005 -0.17499994 1.825 10494000
0.95500004 -0.20499994 1.7950001 13647920
0.95500004 -0.19499993 1.7950001 14696512
0.95500004 -0.19499993 1.8050001 14696512
0.96500003 -0.20499994 1.7950001 13647920
0.96500003 -0.19499993 1.7950001 12595248
0.96500003 -0.19499993 1.8050001 13647936
0.95500004 -0.19499993 1.8150001 14696512
0.96500003 -0.18499994 1.7950001 10506320
0.96500003 -0.18499994 1.8050001 11550800
0.95500004 -0.18499994 1.8150001 12595264
0.96500003 -0.18499994 1.8150001 11563152
0.89500004 -0.19499993 1.835 14696512
0.90500003 -0.19499993 1.835 13647936
0.89500004 -0.18499994 1.835 13647920
0.89500004 -0.18499994 1.845 13647936
0.89500004 -0.17499994 1.845 15753312
0.90500003 -0.18499994 1.835 13647936
0.90500003 -0.17499994 1.835 15757424
0.90500003 -0.17499994 1.845 15757424
0.89500004 -0.17499994 1.855 15753312
0.91500008 -0.18499994 1.835 13647936
0.91500008 -0.17499994 1.845 15757424
0.92500007 -0.18499994 1.835 14700624
0.92500007 -0.17499994 1.835 15753312
0.92500007 -0.17499994 1.845 15761552
0.91500008 -0.17499994 1.855 15757424
0.92500007 -0.17499994 1.855 15761552
0.93500006 -0.18499994 1.835 14700624
0.93500006 -0.17499994 1.835 14700640
0.93500006 -0.17499994 1.845 14704736
0.94500005 -0.17499994 1.835 15765648
0.88500005 -0.15499994 1.725 13689072
0.96500003 -0.13499995 1.605 13684960
0.94500005 -0.13499995 1.6550001 11587808
0.90500003 -0.16499995 1.745 13684960
0.85500008 -0.15499994 1.8150001 12636368
0.81500006 -0.16499995 1.855 15786224
0.82500005 -0.16499995 1.855 15790320
0.83500004 -0.16499995 1.855 15790320
0.86500007 -0.16499995 1.845 11579568
0.85500008 -0.16499995 1.855 15790320
0.86500007 -0.16499995 1.855 15790320
0.86500007 -0.16499995 1.865 14741744
0.87500006 -0.16499995 1.855 15778000
0.88500005 -0.16499995 1.855 15753312
0.88500005 -0.16499995 1.865 15769760
0.89500004 -0.16499995 1.855 14708864
0.90500003 -0.16499995 1.855 14700640
0.91500008 -0.16499995 1.855 14704752
0.92500007 -0.16499995 1.865 13660288
0.89500004 -0.16499995 1.875 13676704
0.90500003 -0.16499995 1.875 14717072
0.90500003 -0.16499995 1.9050001 12624016
0.91500008 -0.16499995 1.875 15769760
0.92500007 -0.16499995 1.875 14712976
0.93500006 -0.16499995 1.845 14733536
0.93500006 -0.16499995 1.855 11563136
1.0350001 -0.11499994 1.5650001 10526880
1.0550001 -0.094999939 1.5650001 11579584
0.97500008 -0.21499994 1.7750001 10502192
0.97500008 -0.20499994 1.7850001 10498096
0.98500007 -0.13499995 1.6450001 12636384
0.98500007 -0.094999939 1.6950001 4219040
1.085 -0.12499994 1.6350001 10526880
1.115 -0.14499994 1.6650001 10526880
0.65500003 -0.59499997 1.9150001 1052688
0.65500003 -0.59499997 1.9250001 1052688
0.65500003 -0.60499996 1.9350001 1056784
0.65500003 -0.59499997 1.9350001 1052688
0.65500003 -0.59499997 1.9450001 1052688
0.66500008 -0.59499997 1.9350001 1052688
0.65500003 -0.58499992 1.9250001 2105360
0.66500008 -0.58499992 1.9150001 2101264
0.66500008 -0.58499992 1.9250001 2105360
0.65500003 -0.58499992 1.9450001 2105360
0.66500008 -0.58499992 1.9450001 2105360
0.68500006 -0.60499996 1.9250001 2105360
0.68500006 -0.59499997 1.9150001 1052688
0.67500007 -0.58499992 1.9150001 2105360
0.68500006 -0.58499992 1.9150001 2101264
0.67500007 -0.58499992 1.9450001 3153936
0.68500006 -0.58499992 1.9450001 3158048
0.65500003 -0.60499996 1.955 1052688
0.66500008 -0.59499997 1.955 2105360
0.65500003 -0.58499992 1.955 2105360
0.65500003 -0.58499992 1.965 3158048
0.65500003 -0.57499993 1.965 4206624
0.66500008 -0.58499992 1.955 3158048
0.66500008 -0.58499992 1.965 3158048
0.65500003 -0.57499993 1.975 4206624
0.65500003 -0.57499993 1.985 3158048
0.66500008 -0.58499992 1.975 4206624
0.66500008 -0.58499992 1.985 4206624
0.66500008 -0.57499993 1.985 4206624
0.67500007 -0.58499992 1.955 4206624
0.67500007 -0.57499993 1.965 4206624
0.68500006 -0.58499992 1.955 4206624
0.68500006 -0.57499993 1.965 3158048
0.67500007 -0.57499993 1.975 4206624
0.67500007 -0.57499993 1.985 4206624
0.68500006 -0.57499993 1.975 3158048
0.68500006 -0.57499993 1.985 3158032
0.69500005 -0.59499997 1.9350001 2105360
0.70500004 -0.59499997 1.9350001 2105360
0.69500005 -0.58499992 1.9150001 1052688
0.70500004 -0.58499992 1.9150001 1052688
0.69500005 -0.58499992 1.9350001 2105360
0.69500005 -0.58499992 1.9450001 3158048
0.70500004 -0.58499992 1.9450001 3158048
0.71500003 -0.59499997 1.9350001 2105360
0.71500003 -0.58499992 1.9250001 2105360
0.71500003 -0.57499993 1.9150001 3158048
0.71500003 -0.57499993 1.9250001 3153936
0.71500003 -0.58499992 1.9450001 3158032
0.71500003 -0.57499993 1.9450001 3153936
0.72500008 -0.58499992 1.9450001 3153936
0.72500008 -0.57499993 1.9350001 2105360
0.69500005 -0.58499992 1.955 4206624
0.69500005 -0.57499993 1.955 3158048
0.69500005 -0.57499993 1.965 3158048
0.70500004 -0.58499992 1.955 3158048
0.70500004 -0.57499993 1.955 3153936
0.70500004 -0.57499993 1.965 3153936
0.69500005 -0.57499993 1.975 3153936
0.69500005 -0.57499993 1.985 3153936
0.70500004 -0.57499993 1.975 2105360
0.71500003 -0.58499992 1.955 3158032
0.71500003 -0.57499993 1.955 3153936
0.71500003 -0.57499993 1.965 2105360
0.72500008 -0.58499992 1.955 3153936
0.72500008 -0.57499993 1.955 2105360
0.72500008 -0.57499993 1.965 2105344
0.71500003 -0.57499993 1.975 2105360
0.71500003 -0.57499993 1.985 2105360
0.72500008 -0.57499993 1.975 2101248
0.66500008 -0.57499993 1.995 3158048
0.66500008 -0.57499993 2.0050001 3158048
0.67500007 -0.57499993 1.995 3158048
0.67500007 -0.57499993 2.0050001 3158048
0.68500006 -0.57499993 1.995 3153936
0.67500007 -0.57499993 2.0150001 3158048
0.69500005 -0.57499993 1.995 3153936
0.70500004 -0.57499993 1.995 2105360
0.70500004 -0.57499993 2.0050001 2105360
0.70500004 -0.57499993 2.0150001 3153936
0.71500003 -0.57499993 1.995 2105360
0.72500008 -0.57499993 1.995 2105360
0.65500003 -0.56499994 1.985 2105360
0.66500008 -0.49499995 1.9250001 2105376
0.67500007 -0.49499995 1.9250001 3158064
0.68500006 -0.49499995 1.9150001 4214864
0.68500006 -0.49499995 1.9250001 4214864
0.67500007 -0.49499995 1.9350001 2105360
0.67500007 -0.50499994 1.955 3158048
0.68500006 -0.50499994 1.965 5255200
0.70500004 -0.53499997 1.985 7352352
0.72500008 -0.55499995 1.985 4202512
0.71500003 -0.54499996 1.975 6299664
0.71500003 -0.54499996 1.985 6299680
0.71500003 -0.53499997 1.975 7348256
0.72500008 -0.54499996 1.975 6299664
0.72500008 -0.54499996 1.985 6299664
0.72500008 -0.53499997 1.975 6299664
0.69500005 -0.49499995 1.9150001 3162176
0.69500005 -0.49499995 1.9250001 2105360
0.70500004 -0.49499995 1.9150001 2109488
0.69500005 -0.50499994 1.9350001 2105360
0.69500005 -0.50499994 1.9450001 3153936
0.71500003 -0.50499994 1.9250001 2101264
0.71500003 -0.50499994 1.9450001 2105360
0.70500004 -0.51499993 1.965 4206624
0.70500004 -0.51499993 1.975 6303776
0.70500004 -0.51499993 1.985 6303776
0.69500005 -0.50499994 1.955 4202512
0.71500003 -0.51499993 1.955 2105360
0.71500003 -0.51499993 1.965 3153936
0.71500003 -0.52499992 1.975 7348256
0.71500003 -0.52499992 1.985 7352352
0.72500008 -0.52499992 1.975 4202512
0.65500003 -0.56499994 1.995 2105360
0.65500003 -0.56499994 2.0050001 2105360
0.66500008 -0.56499994 2.0150001 2105360
0.66500008 -0.55499995 2.0250001 2105360
0.68500006 -0.56499994 2.0050001 3158048
0.67500007 -0.56499994 2.0150001 3158048
0.68500006 -0.56499994 2.0150001 3158048
0.67500007 -0.56499994 2.0350001 4210736
0.68500006 -0.56499994 2.0350001 4210736
0.68500006 -0.56499994 2.0550001 4206624
0.68500006 -0.56499994 2.0650001 4210720
0.65500003 -0.52499992 2.0050001 2105360
0.69500005 -0.56499994 2.0050001 3158032
0.69500005 -0.56499994 2.0150001 3158048
0.70500004 -0.56499994 2.0250001 4206624
0.70500004 -0.53499997 1.995 6299664
0.70500004 -0.53499997 2.0050001 4202528
0.71500003 -0.56499994 1.995 2105360
0.71500003 -0.56499994 2.0050001 3153936
0.72500008 -0.56499994 1.995 3153936
0.72500008 -0.55499995 1.995 4206624
0.71500003 -0.56499994 2.0150001 4206624
0.71500003 -0.56499994 2.0250001 4206624
0.71500003 -0.55499995 2.0150001 2105360
0.72500008 -0.56499994 2.0150001 4210736
0.72500008 -0.55499995 2.0150001 3158032
0.71500003 -0.54499996 1.995 5251088
0.71500003 -0.54499996 2.0050001 4202512
0.71500003 -0.53499997 1.995 6303776
0.69500005 -0.56499994 2.0350001 4210736
0.70500004 -0.56499994 2.0350001 4210736
0.70500004 -0.56499994 2.0450001 4206624
0.69500005 -0.56499994 2.0550001 3158048
0.70500004 -0.56499994 2.0550001 3158048
0.70500004 -0.56499994 2.0650001 3158048
0.70500004 -0.53499997 2.0350001 2105376
0.71500003 -0.56499994 2.0350001 4206624
0.71500003 -0.56499994 2.0450001 3158032
0.71500003 -0.55499995 2.0350001 3153952
0.72500008 -0.56499994 2.0350001 3158048
0.72500008 -0.55499995 2.0450001 2105360
0.71500003 -0.56499994 2.0550001 3158048
0.71500003 -0.56499994 2.0650001 2105360
0.71500003 -0.55499995 2.0650001 3158048
0.72500008 -0.56499994 2.0650001 2105360
0.72500008 -0.55499995 2.0650001 3153952
0.71500003 -0.54499996 2.0350001 3158048
0.69500005 -0.52499992 1.995 5251104
0.70500004 -0.52499992 1.995 6299680
0.73500007 -0.57499993 1.955 1052672
0.73500007 -0.57499993 1.975 2101248
0.73500007 -0.57499993 1.995 2101248
0.73500007 -0.56499994 1.9350001 1052672
0.73500007 -0.54499996 1.9250001 4202512
0.73500007 -0.54499996 1.9450001 4202512
0.73500007 -0.56499994 1.955 3149824
0.73500007 -0.56499994 1.985 2101264
0.73500007 -0.55499995 1.985 4202512
0.74500006 -0.56499994 1.975 3149840
0.74500006 -0.56499994 1.985 3149840
0.74500006 -0.55499995 1.975 4198416
0.74500006 -0.55499995 1.985 4198416
0.74500006 -0.54499996 1.955 4198416
0.74500006 -0.54499996 1.965 3149824
0.74500006 -0.53499997 1.965 3149824
0.73500007 -0.54499996 1.985 3149840
0.73500007 -0.53499997 1.985 3149840
0.74500006 -0.54499996 1.985 3149840
0.74500006 -0.53499997 1.985 2101264
0.73500007 -0.52499992 1.9250001 4198400
0.73500007 -0.51499993 1.9250001 2101264
0.73500007 -0.52499992 1.965 2105360
0.73500007 -0.51499993 1.955 2101264
0.74500006 -0.52499992 1.965 2101264
0.73500007 -0.52499992 1.975 2101264
0.73500007 -0.52499992 1.985 3153936
0.74500006 -0.52499992 1.975 2101264
0.69500005 -0.57499993 2.075 4206624
0.70500004 -0.57499993 2.095 2105360
0.70500004 -0.57499993 2.105 3153936
0.70500004 -0.57499993 2.135 2105360
0.71500003 -0.57499993 2.115 3158048
0.71500003 -0.57499993 2.125 3153952
0.71500003 -0.57499993 2.135 3158048
0.71500003 -0.57499993 2.145 2101264
0.72500008 -0.57499993 2.145 3158048
0.66500008 -0.57499993 2.155 6316112
0.72500008 -0.57499993 2.155 3158048
0.72500008 -0.57499993 2.165 3158048
0.68500006 -0.54499996 2.085 1056784
0.69500005 -0.56499994 2.085 2105360
0.71500003 -0.56499994 2.075 2105360
0.71500003 -0.56499994 2.085 3153952
0.72500008 -0.56499994 2.075 2105360
0.71500003 -0.56499994 2.105 3153952
0.72500008 -0.56499994 2.105 3158048
0.72500008 -0.56499994 2.125 3158048
0.65500003 -0.47499993 1.9150001 2105360
0.65500003 -0.45499995 1.9150001 2105360
0.65500003 -0.45499995 1.9250001 1052688
0.66500008 -0.46499994 1.9150001 2105360
0.66500008 -0.45499995 1.9150001 2105360
0.67500007 -0.48499995 1.9150001 3158064
0.67500007 -0.47499993 1.9150001 2109488
0.68500006 -0.48499995 1.9150001 4218976
0.68500006 -0.47499993 1.9150001 4218976
0.67500007 -0.46499994 1.9150001 2105376
0.67500007 -0.45499995 1.9150001 2105360
0.68500006 -0.46499994 1.9150001 1056800
0.68500006 -0.45499995 1.9150001 2105360
0.65500003 -0.45499995 1.955 1052688
0.65500003 -0.44499993 1.9150001 2101264
0.67500007 -0.44499993 1.9150001 2105360
0.69500005 -0.48499995 1.9150001 3166288
0.69500005 -0.47499993 1.9150001 4214864
0.70500004 -0.48499995 1.9150001 3166288
0.70500004 -0.47499993 1.9150001 3166288
0.69500005 -0.46499994 1.9150001 2109472
0.70500004 -0.46499994 1.9150001 2105376
0.71500003 -0.48499995 1.9150001 3166288
0.72500008 -0.48499995 1.9150001 3166288
0.72500008 -0.47499993 1.9150001 3162192
0.69500005 -0.44499993 1.9150001 2105360
0.65500003 -0.40499994 1.9150001 2105360
0.65500003 -0.34499994 1.9150001 2105360
0.65500003 -0.33499995 1.9150001 2105360
0.65500003 -0.33499995 1.9250001 2105360
0.65500003 -0.37499994 2.105 11579568
0.65500003 -0.36499995 2.105 12632256
0.65500003 -0.34499994 2.105 3158064
0.65500003 -0.35499993 2.145 3158064
0.66500008 -0.35499993 2.135 3158048
0.65500003 -0.33499995 2.115 3158048
0.65500003 -0.33499995 2.125 3158048
0.65500003 -0.34499994 2.135 4206640
0.65500003 -0.34499994 2.145 3158064
