# .PCD v0.7 - Point Cloud Data file format
VERSION 0.7
FIELDS x y z rgba
SIZE 4 4 4 4
TYPE F F F U
COUNT 1 1 1 1
WIDTH 1217
HEIGHT 1
VIEWPOINT 0 0 0 1 0 0 0
POINTS 1217
DATA ascii
-0.01499994 -0.22499993 1.4150001 8421504
-0.01499994 -0.22499993 1.4250001 8421504
-0.01499994 -0.21499994 1.4150001 8421504
-0.01499994 -0.21499994 1.4250001 8421504
-0.0049999403 -0.24499995 1.4150001 7372912
-0.0049999403 -0.24499995 1.4250001 7372912
-0.0049999403 -0.23499994 1.4150001 8421488
-0.0049999403 -0.23499994 1.4250001 7372912
0.0050000595 -0.24499995 1.4250001 7372912
0.0050000595 -0.23499994 1.4250001 7372928
-0.0049999403 -0.22499993 1.4250001 8421488
-0.0049999403 -0.21499994 1.4150001 8421504
-0.0049999403 -0.21499994 1.4250001 8421504
0.0050000595 -0.22499993 1.4250001 7372912
0.0050000595 -0.21499994 1.4250001 8421504
-0.024999941 -0.20499994 1.4150001 7372912
-0.024999941 -0.19499993 1.4150001 7372912
-0.01499994 -0.20499994 1.4250001 8425600
-0.01499994 -0.19499993 1.4150001 8421504
-0.01499994 -0.19499993 1.4250001 8421504
-0.024999941 -0.18499994 1.4150001 8421504
-0.024999941 -0.17499994 1.4150001 8421504
-0.01499994 -0.18499994 1.4150001 7372912
-0.01499994 -0.18499994 1.4250001 8421504
-0.01499994 -0.17499994 1.4150001 8421504
-0.01499994 -0.17499994 1.4250001 8425600
-0.0049999403 -0.20499994 1.4250001 8421504
-0.0049999403 -0.19499993 1.4250001 8425600
0.0050000595 -0.20499994 1.4250001 8421504
0.0050000595 -0.19499993 1.4250001 8425600
-0.0049999403 -0.18499994 1.4250001 8421504
-0.0049999403 -0.17499994 1.4250001 8425600
0.0050000595 -0.18499994 1.4250001 8421504
0.0050000595 -0.17499994 1.4250001 8421504
-0.0049999403 -0.32499993 1.4350001 7368816
0.0050000595 -0.32499993 1.4350001 7372912
0.0050000595 -0.32499993 1.4450001 9474192
0.0050000595 -0.31499994 1.4350001 8421504
0.0050000595 -0.31499994 1.4450001 9474192
0.0050000595 -0.30499995 1.4350001 7372928
0.0050000595 -0.29499993 1.4350001 8425616
0.0050000595 -0.28499994 1.4350001 7372928
0.0050000595 -0.27499995 1.4350001 8421504
0.0050000595 -0.26499993 1.4350001 8425600
0.0050000595 -0.25499994 1.4350001 7372928
0.0050000595 -0.24499995 1.4350001 7372928
0.0050000595 -0.22499993 1.4350001 8421504
-0.14499994 -0.16499995 1.3050001 10526864
-0.14499994 -0.16499995 1.3150001 10530976
-0.14499994 -0.15499994 1.3150001 10526880
-0.13499995 -0.16499995 1.3150001 10526864
-0.13499995 -0.16499995 1.325 10526864
-0.13499995 -0.15499994 1.3150001 9478288
-0.13499995 -0.15499994 1.325 9478288
-0.14499994 -0.14499994 1.3150001 9478288
-0.14499994 -0.13499995 1.3150001 9478288
-0.14499994 -0.13499995 1.325 9474192
-0.13499995 -0.14499994 1.325 9478288
-0.13499995 -0.13499995 1.325 9478288
-0.12499994 -0.16499995 1.325 10526864
-0.12499994 -0.15499994 1.325 10530976
-0.12499994 -0.16499995 1.335 9478288
-0.12499994 -0.15499994 1.335 10530976
-0.11499994 -0.16499995 1.335 9478288
-0.11499994 -0.16499995 1.345 9474192
-0.11499994 -0.15499994 1.335 10526880
-0.11499994 -0.15499994 1.345 9478288
-0.12499994 -0.14499994 1.325 9478288
-0.12499994 -0.14499994 1.335 9478288
-0.12499994 -0.13499995 1.335 9478288
-0.11499994 -0.14499994 1.335 9478288
-0.11499994 -0.14499994 1.345 9478288
-0.11499994 -0.13499995 1.345 9474192
-0.14499994 -0.12499994 1.3150001 8425600
-0.14499994 -0.12499994 1.325 8425600
-0.14499994 -0.11499994 1.3150001 8425600
-0.14499994 -0.11499994 1.325 8425600
-0.13499995 -0.12499994 1.325 9474192
-0.13499995 -0.11499994 1.325 9474192
-0.13499995 -0.11499994 1.335 9474192
-0.14499994 -0.10499994 1.325 8425600
-0.14499994 -0.094999939 1.325 8425600
-0.13499995 -0.10499994 1.325 8425600
-0.13499995 -0.10499994 1.335 8425600
-0.13499995 -0.094999939 1.335 7372928
-0.12499994 -0.12499994 1.335 9478288
-0.12499994 -0.12499994 1.345 9478288
-0.12499994 -0.11499994 1.335 9478288
-0.12499994 -0.11499994 1.345 9478288
-0.11499994 -0.12499994 1.345 9478288
-0.11499994 -0.11499994 1.345 9474192
-0.12499994 -0.10499994 1.335 8425600
-0.12499994 -0.10499994 1.345 8425600
-0.12499994 -0.094999939 1.335 7372928
-0.12499994 -0.094999939 1.345 7372928
-0.11499994 -0.10499994 1.345 8425600
-0.11499994 -0.14499994 1.355 9474192
-0.11499994 -0.13499995 1.355 9474176
-0.11499994 -0.12499994 1.355 9474192
-0.11499994 -0.11499994 1.355 8425600
-0.11499994 -0.11499994 1.365 7372928
-0.11499994 -0.10499994 1.355 7372928
-0.11499994 -0.094999939 1.355 7372912
-0.11499994 -0.094999939 1.365 5267552
-0.10499994 -0.16499995 1.355 9474192
-0.10499994 -0.16499995 1.365 9474192
-0.10499994 -0.15499994 1.355 9474192
-0.10499994 -0.15499994 1.365 9474192
-0.10499994 -0.16499995 1.375 9474192
-0.10499994 -0.16499995 1.3850001 8425600
-0.10499994 -0.15499994 1.375 8425600
-0.10499994 -0.15499994 1.3850001 8425600
-0.10499994 -0.14499994 1.365 9474176
-0.10499994 -0.13499995 1.365 8425600
-0.10499994 -0.14499994 1.375 8425600
-0.10499994 -0.14499994 1.3850001 8421504
-0.10499994 -0.13499995 1.375 8421504
-0.10499994 -0.13499995 1.3850001 7372928
-0.094999939 -0.16499995 1.3950001 8425600
-0.094999939 -0.16499995 1.4050001 6316128
-0.094999939 -0.15499994 1.3950001 7372928
-0.094999939 -0.15499994 1.4050001 5263440
-0.094999939 -0.16499995 1.4150001 4214848
-0.094999939 -0.16499995 1.4250001 4210752
-0.094999939 -0.15499994 1.4250001 4210752
-0.094999939 -0.14499994 1.3950001 7368816
-0.094999939 -0.14499994 1.4050001 4214864
-0.094999939 -0.13499995 1.3950001 6316128
-0.094999939 -0.13499995 1.4050001 3162176
-0.094999939 -0.14499994 1.4150001 4210752
-0.094999939 -0.14499994 1.4250001 4210752
-0.094999939 -0.13499995 1.4150001 3162176
-0.094999939 -0.13499995 1.4250001 3162176
-0.084999941 -0.16499995 1.4250001 4210768
-0.084999941 -0.15499994 1.4250001 4210768
-0.074999943 -0.16499995 1.4250001 5267552
-0.074999943 -0.15499994 1.4250001 4214864
-0.084999941 -0.14499994 1.4250001 4210752
-0.084999941 -0.13499995 1.4150001 4210752
-0.084999941 -0.13499995 1.4250001 4210752
-0.074999943 -0.14499994 1.4250001 5263440
-0.074999943 -0.13499995 1.4250001 4210752
-0.10499994 -0.12499994 1.365 8425600
-0.10499994 -0.11499994 1.365 7372912
-0.10499994 -0.12499994 1.375 7372928
-0.10499994 -0.12499994 1.3850001 6320240
-0.10499994 -0.11499994 1.375 6320240
-0.10499994 -0.11499994 1.3850001 6316128
-0.10499994 -0.10499994 1.365 6320224
-0.10499994 -0.094999939 1.365 5263440
-0.10499994 -0.10499994 1.375 5267552
-0.10499994 -0.10499994 1.3850001 4214864
-0.10499994 -0.094999939 1.375 5263440
-0.10499994 -0.094999939 1.3850001 4214864
-0.094999939 -0.094999939 1.3850001 4214864
-0.094999939 -0.12499994 1.4050001 4214864
-0.094999939 -0.11499994 1.4050001 3162160
-0.094999939 -0.12499994 1.4150001 2109488
-0.094999939 -0.12499994 1.4250001 2109488
-0.094999939 -0.11499994 1.4150001 2105376
-0.094999939 -0.11499994 1.4250001 1056800
-0.10499994 -0.10499994 1.3950001 4210752
-0.094999939 -0.10499994 1.3950001 4214848
-0.094999939 -0.10499994 1.4050001 4210752
-0.094999939 -0.094999939 1.3950001 4210752
-0.094999939 -0.094999939 1.4050001 4210752
-0.094999939 -0.10499994 1.4150001 3162160
-0.084999941 -0.12499994 1.4150001 4210752
-0.084999941 -0.11499994 1.4150001 3162176
-0.084999941 -0.11499994 1.4250001 2105376
-0.074999943 -0.12499994 1.4250001 4210752
-0.074999943 -0.11499994 1.4150001 4214864
-0.074999943 -0.11499994 1.4250001 4210752
-0.084999941 -0.10499994 1.4050001 3158064
-0.084999941 -0.094999939 1.3950001 3162176
-0.084999941 -0.094999939 1.4050001 3158064
-0.074999943 -0.094999939 1.4050001 3162176
-0.084999941 -0.10499994 1.4150001 2109488
-0.074999943 -0.10499994 1.4150001 4210752
-0.14499994 -0.084999941 1.325 7372928
-0.14499994 -0.074999943 1.325 6316144
-0.14499994 -0.084999941 1.335 7372928
-0.14499994 -0.074999943 1.335 7372928
-0.13499995 -0.084999941 1.335 6320240
-0.13499995 -0.074999943 1.335 6320240
-0.13499995 -0.074999943 1.345 7368832
-0.14499994 -0.064999938 1.335 6320240
-0.14499994 -0.05499994 1.335 7372928
-0.13499995 -0.064999938 1.335 6320240
-0.13499995 -0.064999938 1.345 6320240
-0.13499995 -0.05499994 1.335 7372944
-0.13499995 -0.05499994 1.345 7372944
-0.12499994 -0.084999941 1.345 4214864
-0.12499994 -0.074999943 1.345 7372928
-0.12499994 -0.064999938 1.345 6320240
-0.12499994 -0.05499994 1.345 7372928
-0.14499994 -0.044999942 1.335 8425616
-0.14499994 -0.044999942 1.345 6320256
-0.14499994 -0.034999941 1.345 6320256
-0.13499995 -0.044999942 1.345 5267552
-0.13499995 -0.034999941 1.345 6320240
-0.14499994 -0.024999941 1.345 6320256
-0.13499995 -0.05499994 1.355 6320240
-0.12499994 -0.084999941 1.355 5263440
-0.12499994 -0.074999943 1.355 6320240
-0.11499994 -0.084999941 1.355 5267552
-0.11499994 -0.084999941 1.365 5267552
-0.11499994 -0.074999943 1.355 5267552
-0.11499994 -0.074999943 1.365 5267552
-0.12499994 -0.064999938 1.355 6320256
-0.12499994 -0.05499994 1.355 5267552
-0.11499994 -0.064999938 1.355 6320240
-0.11499994 -0.064999938 1.365 5267552
-0.11499994 -0.05499994 1.355 4210768
-0.11499994 -0.05499994 1.365 4214864
-0.13499995 -0.044999942 1.355 4214864
-0.13499995 -0.034999941 1.355 6320240
-0.14499994 -0.024999941 1.355 6320240
-0.14499994 -0.01499994 1.355 4214864
-0.13499995 -0.024999941 1.355 5263456
-0.13499995 -0.024999941 1.365 4210752
-0.13499995 -0.01499994 1.355 6316128
-0.13499995 -0.01499994 1.365 5263440
-0.12499994 -0.044999942 1.355 4214864
-0.12499994 -0.034999941 1.355 7368832
-0.12499994 -0.034999941 1.365 6316144
-0.11499994 -0.044999942 1.355 4214864
-0.11499994 -0.044999942 1.365 6320240
-0.11499994 -0.034999941 1.365 5267552
-0.12499994 -0.024999941 1.365 5267536
-0.12499994 -0.01499994 1.355 8421488
-0.12499994 -0.01499994 1.365 8421488
-0.11499994 -0.024999941 1.365 7368800
-0.11499994 -0.01499994 1.365 7368800
-0.11499994 -0.01499994 1.375 4210752
-0.10499994 -0.084999941 1.365 4214864
-0.10499994 -0.074999943 1.365 5267552
-0.10499994 -0.084999941 1.375 4214864
-0.10499994 -0.074999943 1.375 5263440
-0.094999939 -0.084999941 1.375 4214864
-0.094999939 -0.084999941 1.3850001 4214864
-0.094999939 -0.074999943 1.375 5263440
-0.094999939 -0.074999943 1.3850001 4210752
-0.10499994 -0.064999938 1.365 5267552
-0.10499994 -0.05499994 1.365 5267552
-0.10499994 -0.064999938 1.375 5263440
-0.10499994 -0.05499994 1.375 5263440
-0.094999939 -0.064999938 1.375 4210752
-0.094999939 -0.064999938 1.3850001 3162176
-0.094999939 -0.05499994 1.375 4214864
-0.084999941 -0.084999941 1.3850001 4210752
-0.084999941 -0.074999943 1.3850001 3162176
-0.074999943 -0.074999943 1.3850001 4210752
-0.084999941 -0.064999938 1.3850001 4214864
-0.084999941 -0.05499994 1.375 4214864
-0.074999943 -0.064999938 1.3850001 4210768
-0.074999943 -0.05499994 1.375 5263440
-0.074999943 -0.05499994 1.3850001 5263440
-0.094999939 -0.084999941 1.3950001 3162176
-0.084999941 -0.084999941 1.3950001 3162160
-0.084999941 -0.074999943 1.3950001 3162160
-0.074999943 -0.084999941 1.3950001 3162176
-0.074999943 -0.084999941 1.4050001 3158064
-0.074999943 -0.074999943 1.3950001 3162176
-0.10499994 -0.044999942 1.365 5267552
-0.10499994 -0.034999941 1.365 6316112
-0.094999939 -0.034999941 1.365 7368800
-0.10499994 -0.044999942 1.375 4210752
-0.10499994 -0.034999941 1.375 5263440
-0.094999939 -0.044999942 1.375 4214848
-0.094999939 -0.034999941 1.375 7368800
-0.10499994 -0.024999941 1.365 6316112
-0.10499994 -0.01499994 1.365 4214848
-0.094999939 -0.024999941 1.365 7368800
-0.10499994 -0.01499994 1.375 3158048
-0.094999939 -0.024999941 1.375 4210736
-0.094999939 -0.01499994 1.375 5263424
-0.084999941 -0.044999942 1.375 6316112
-0.084999941 -0.034999941 1.375 6316112
-0.074999943 -0.044999942 1.375 6316112
-0.074999943 -0.034999941 1.375 5263424
-0.084999941 -0.024999941 1.375 4210736
-0.084999941 -0.01499994 1.375 8421488
-0.074999943 -0.024999941 1.375 5263424
-0.074999943 -0.024999941 1.3850001 4210736
-0.074999943 -0.01499994 1.375 8421488
-0.074999943 -0.01499994 1.3850001 7368800
-0.064999938 -0.16499995 1.4150001 6316128
-0.064999938 -0.15499994 1.4150001 6320240
-0.064999938 -0.15499994 1.4250001 6316144
-0.05499994 -0.16499995 1.4150001 5267552
-0.05499994 -0.15499994 1.4150001 6316128
-0.064999938 -0.14499994 1.4250001 6316128
-0.064999938 -0.13499995 1.4250001 5263440
-0.05499994 -0.14499994 1.4150001 7368816
-0.05499994 -0.14499994 1.4250001 5267552
-0.05499994 -0.13499995 1.4150001 6320240
-0.05499994 -0.13499995 1.4250001 6316128
-0.044999942 -0.16499995 1.4150001 7368816
-0.044999942 -0.15499994 1.4150001 6316128
-0.034999941 -0.16499995 1.4150001 7372912
-0.034999941 -0.15499994 1.4150001 7368816
-0.044999942 -0.14499994 1.4150001 6320240
-0.044999942 -0.13499995 1.4150001 7368816
-0.044999942 -0.13499995 1.4250001 6320240
-0.034999941 -0.14499994 1.4150001 6320240
-0.034999941 -0.14499994 1.4250001 7372928
-0.034999941 -0.13499995 1.4250001 7372928
-0.064999938 -0.12499994 1.4250001 4214864
-0.064999938 -0.11499994 1.4150001 4214848
-0.064999938 -0.11499994 1.4250001 4214864
-0.05499994 -0.12499994 1.4250001 5263440
-0.05499994 -0.11499994 1.4250001 5267552
-0.064999938 -0.094999939 1.4050001 4214864
-0.064999938 -0.10499994 1.4150001 4214864
-0.064999938 -0.094999939 1.4150001 4214864
-0.05499994 -0.10499994 1.4150001 4214864
-0.05499994 -0.10499994 1.4250001 4214864
-0.05499994 -0.094999939 1.4150001 4214864
-0.05499994 -0.094999939 1.4250001 4210752
-0.044999942 -0.12499994 1.4250001 5267552
-0.044999942 -0.11499994 1.4150001 6320240
-0.044999942 -0.11499994 1.4250001 6316128
-0.034999941 -0.12499994 1.4150001 6316128
-0.034999941 -0.12499994 1.4250001 5267552
-0.034999941 -0.11499994 1.4150001 7368816
-0.034999941 -0.11499994 1.4250001 5267552
-0.044999942 -0.10499994 1.4150001 5263440
-0.044999942 -0.10499994 1.4250001 5267552
-0.044999942 -0.094999939 1.4250001 4214864
-0.034999941 -0.10499994 1.4250001 6320240
-0.034999941 -0.094999939 1.4250001 5263440
-0.024999941 -0.16499995 1.4150001 7372912
-0.024999941 -0.15499994 1.4150001 7372912
-0.01499994 -0.16499995 1.4150001 8421504
-0.01499994 -0.16499995 1.4250001 8421504
-0.01499994 -0.15499994 1.4250001 7372928
-0.024999941 -0.14499994 1.4150001 6320224
-0.024999941 -0.14499994 1.4250001 6320240
-0.024999941 -0.13499995 1.4150001 8421504
-0.024999941 -0.13499995 1.4250001 7372912
-0.01499994 -0.14499994 1.4250001 6320240
-0.01499994 -0.13499995 1.4250001 7368816
-0.0049999403 -0.16499995 1.4250001 8425600
-0.0049999403 -0.15499994 1.4250001 7372912
0.0050000595 -0.16499995 1.4250001 8425600
0.0050000595 -0.15499994 1.4250001 8421504
-0.0049999403 -0.14499994 1.4250001 7368816
-0.0049999403 -0.13499995 1.4250001 6320224
0.0050000595 -0.14499994 1.4250001 6320240
0.0050000595 -0.13499995 1.4250001 7368816
-0.024999941 -0.12499994 1.4250001 6320240
-0.024999941 -0.11499994 1.4250001 6316128
-0.01499994 -0.12499994 1.4250001 7368816
-0.01499994 -0.11499994 1.4250001 6316128
-0.024999941 -0.10499994 1.4250001 6320240
-0.024999941 -0.094999939 1.4250001 5267552
-0.01499994 -0.10499994 1.4250001 6320240
-0.01499994 -0.094999939 1.4250001 5267552
-0.0049999403 -0.12499994 1.4250001 7368816
-0.0049999403 -0.11499994 1.4250001 6316128
0.0050000595 -0.12499994 1.4250001 6320240
0.0050000595 -0.11499994 1.4250001 5263440
-0.0049999403 -0.10499994 1.4250001 6320240
-0.0049999403 -0.094999939 1.4250001 5267552
-0.064999938 -0.064999938 1.3850001 4214864
-0.064999938 -0.05499994 1.3850001 5267536
-0.05499994 -0.05499994 1.3850001 6316112
-0.064999938 -0.084999941 1.3950001 4214848
-0.064999938 -0.084999941 1.4050001 5263440
-0.064999938 -0.074999943 1.3950001 5263440
-0.064999938 -0.074999943 1.4050001 5263440
-0.05499994 -0.084999941 1.4050001 5263440
-0.05499994 -0.074999943 1.3950001 5263440
-0.05499994 -0.074999943 1.4050001 5267536
-0.05499994 -0.084999941 1.4150001 4214864
-0.05499994 -0.074999943 1.4150001 4214864
-0.064999938 -0.064999938 1.3950001 4214848
-0.064999938 -0.05499994 1.3950001 5263440
-0.05499994 -0.064999938 1.3950001 4210752
-0.05499994 -0.064999938 1.4050001 4214864
-0.05499994 -0.05499994 1.3950001 5267536
-0.044999942 -0.074999943 1.4050001 4214864
-0.044999942 -0.084999941 1.4150001 4210752
-0.044999942 -0.084999941 1.4250001 4210752
-0.044999942 -0.074999943 1.4150001 4214864
-0.034999941 -0.084999941 1.4250001 4214864
-0.034999941 -0.074999943 1.4150001 4214864
-0.034999941 -0.074999943 1.4250001 4210752
-0.044999942 -0.064999938 1.4050001 4214848
-0.044999942 -0.05499994 1.3950001 6316112
-0.044999942 -0.05499994 1.4050001 5267536
-0.034999941 -0.064999938 1.4050001 5263440
-0.034999941 -0.05499994 1.3950001 6316112
-0.034999941 -0.05499994 1.4050001 6316112
-0.044999942 -0.064999938 1.4150001 4214848
-0.034999941 -0.064999938 1.4150001 5263440
-0.034999941 -0.064999938 1.4250001 4214848
-0.064999938 -0.044999942 1.375 6316112
-0.064999938 -0.044999942 1.3850001 6316112
-0.064999938 -0.034999941 1.375 5263424
-0.064999938 -0.034999941 1.3850001 4210736
-0.05499994 -0.044999942 1.3850001 6316112
-0.05499994 -0.034999941 1.3850001 7368784
-0.064999938 -0.024999941 1.375 8421472
-0.064999938 -0.01499994 1.375 7368800
-0.064999938 -0.01499994 1.3850001 8421488
-0.05499994 -0.024999941 1.375 7368800
-0.05499994 -0.01499994 1.3850001 8421488
-0.044999942 -0.044999942 1.3850001 7368800
-0.044999942 -0.034999941 1.3850001 9474160
-0.034999941 -0.044999942 1.3850001 8421472
-0.034999941 -0.034999941 1.3850001 6316112
-0.044999942 -0.024999941 1.3850001 6316112
-0.044999942 -0.01499994 1.3850001 9474176
-0.034999941 -0.024999941 1.3850001 7368800
-0.034999941 -0.01499994 1.3850001 11579536
-0.044999942 -0.044999942 1.3950001 6316112
-0.034999941 -0.044999942 1.3950001 7368800
-0.034999941 -0.034999941 1.3950001 6316112
-0.044999942 -0.01499994 1.3950001 10526864
-0.034999941 -0.01499994 1.3950001 11579536
-0.034999941 -0.01499994 1.4050001 11579552
-0.024999941 -0.084999941 1.4250001 5263440
-0.024999941 -0.074999943 1.4250001 4210752
-0.01499994 -0.084999941 1.4250001 5267552
-0.01499994 -0.074999943 1.4250001 4214864
-0.024999941 -0.05499994 1.4050001 6316112
-0.01499994 -0.05499994 1.4050001 6316112
-0.024999941 -0.064999938 1.4150001 5263424
-0.024999941 -0.064999938 1.4250001 4214848
-0.024999941 -0.05499994 1.4150001 6316112
-0.01499994 -0.064999938 1.4150001 5263440
-0.01499994 -0.064999938 1.4250001 4214864
-0.01499994 -0.05499994 1.4150001 6316112
-0.0049999403 -0.064999938 1.4250001 5263440
-0.0049999403 -0.05499994 1.4150001 7368800
-0.0049999403 -0.05499994 1.4250001 6316112
0.0050000595 -0.064999938 1.4250001 4214848
0.0050000595 -0.05499994 1.4250001 6316112
-0.024999941 -0.044999942 1.3950001 7368800
-0.024999941 -0.044999942 1.4050001 7368800
-0.024999941 -0.034999941 1.3950001 8417376
-0.024999941 -0.034999941 1.4050001 7368800
-0.01499994 -0.044999942 1.4050001 9474160
-0.01499994 -0.034999941 1.4050001 7368800
-0.01499994 -0.044999942 1.4150001 7368784
-0.01499994 -0.034999941 1.4150001 5263424
-0.024999941 -0.024999941 1.3950001 8421488
-0.024999941 -0.01499994 1.3950001 11579536
-0.024999941 -0.01499994 1.4050001 11579536
-0.01499994 -0.024999941 1.3950001 8421488
-0.01499994 -0.024999941 1.4050001 6316112
-0.01499994 -0.01499994 1.3950001 11579536
-0.01499994 -0.01499994 1.4050001 10526864
-0.01499994 -0.024999941 1.4150001 6316112
-0.0049999403 -0.044999942 1.4150001 8421488
-0.0049999403 -0.044999942 1.4250001 8421488
-0.0049999403 -0.034999941 1.4150001 5263408
-0.0049999403 -0.034999941 1.4250001 4210736
0.0050000595 -0.044999942 1.4250001 9474176
-0.0049999403 -0.024999941 1.4050001 7364688
-0.0049999403 -0.01499994 1.4050001 10526848
-0.0049999403 -0.024999941 1.4150001 6316112
-0.0049999403 -0.024999941 1.4250001 5263424
-0.0049999403 -0.01499994 1.4150001 10526864
0.0050000595 -0.024999941 1.4150001 6316112
0.0050000595 -0.024999941 1.4250001 6316112
0.0050000595 -0.01499994 1.4150001 8421488
0.0050000595 -0.01499994 1.4250001 10526848
0.0050000595 -0.14499994 1.4350001 6320240
0.0050000595 -0.13499995 1.4350001 6320240
-0.0049999403 -0.11499994 1.4350001 6316128
0.0050000595 -0.11499994 1.4350001 7368816
-0.0049999403 -0.10499994 1.4350001 5267552
-0.0049999403 -0.094999939 1.4350001 6320240
0.0050000595 -0.10499994 1.4350001 5267552
0.0050000595 -0.094999939 1.4350001 6320240
-0.01499994 -0.084999941 1.4350001 5267552
-0.0049999403 -0.084999941 1.4350001 5267552
-0.0049999403 -0.074999943 1.4350001 4214864
0.0050000595 -0.084999941 1.4350001 5267552
0.0050000595 -0.074999943 1.4350001 4214864
-0.0049999403 -0.064999938 1.4350001 4214864
0.0050000595 -0.064999938 1.4350001 5267552
0.0050000595 -0.05499994 1.4350001 5263440
-0.0049999403 -0.034999941 1.4350001 4210736
0.0050000595 -0.044999942 1.4350001 9474176
0.0050000595 -0.034999941 1.4350001 6316112
0.0050000595 -0.034999941 1.4450001 5263424
0.0050000595 -0.024999941 1.4350001 4210736
-0.61499995 -0.51499993 2.0650001 1056784
-0.61499995 -0.50499994 2.0550001 1052688
-0.59499997 -0.51499993 2.0550001 1056784
-0.60499996 -0.49499995 2.0550001 1056784
-0.58499992 -0.50499994 2.0150001 1052688
-0.58499992 -0.50499994 2.0550001 1052688
-0.55499995 -0.60499996 2.145 1052688
-0.55499995 -0.59499997 2.145 1052688
-0.61499995 -0.63499993 2.1849999 1052688
-0.60499996 -0.63499993 2.1849999 1052672
-0.59499997 -0.63499993 2.1849999 1052688
-0.60499996 -0.62499994 2.165 1052672
-0.61499995 -0.63499993 2.2250001 1052672
-0.61499995 -0.61499995 2.2050002 1052672
-0.59499997 -0.63499993 2.1950002 0
-0.59499997 -0.63499993 2.2050002 1052688
-0.60499996 -0.62499994 2.1950002 1052672
-0.59499997 -0.62499994 2.2050002 10530976
-0.60499996 -0.62499994 2.2250001 1052672
-0.61499995 -0.58499992 2.175 1052672
-0.61499995 -0.58499992 2.1849999 1052672
-0.60499996 -0.60499996 2.165 1052672
-0.60499996 -0.59499997 2.155 1052672
-0.60499996 -0.59499997 2.165 1052672
-0.60499996 -0.59499997 2.175 1052672
-0.59499997 -0.60499996 2.175 1052672
-0.59499997 -0.60499996 2.1849999 1052672
-0.59499997 -0.59499997 2.175 1052672
-0.60499996 -0.58499992 2.155 1052672
-0.60499996 -0.58499992 2.175 1052672
-0.60499996 -0.58499992 2.1849999 1052672
-0.59499997 -0.58499992 2.1849999 1052672
-0.59499997 -0.57499993 2.1849999 1052688
-0.61499995 -0.58499992 2.2050002 1052672
-0.61499995 -0.57499993 2.2050002 1052688
-0.62499994 -0.58499992 2.2250001 1052672
-0.61499995 -0.58499992 2.2150002 1052672
-0.60499996 -0.58499992 2.1950002 1052672
-0.60499996 -0.57499993 2.1950002 1052688
-0.59499997 -0.58499992 2.1950002 1052672
-0.60499996 -0.57499993 2.2250001 1052672
-0.58499992 -0.61499995 2.175 1052672
-0.57499993 -0.62499994 2.1849999 3158048
-0.57499993 -0.61499995 2.175 1052688
-0.56499994 -0.62499994 2.165 1052672
-0.55499995 -0.62499994 2.165 1052672
-0.58499992 -0.63499993 2.1950002 0
-0.58499992 -0.62499994 2.1950002 9474176
-0.57499993 -0.62499994 2.1950002 1052672
-0.55499995 -0.64499992 2.2150002 2105360
-0.58499992 -0.60499996 2.165 1052672
-0.58499992 -0.59499997 2.165 1052672
-0.57499993 -0.60499996 2.155 1052688
-0.57499993 -0.59499997 2.155 1052672
-0.57499993 -0.58499992 2.155 1052672
-0.57499993 -0.58499992 2.165 1052672
-0.58499992 -0.58499992 2.175 1052672
-0.58499992 -0.58499992 2.1849999 1052672
-0.58499992 -0.57499993 2.1849999 1052672
-0.57499993 -0.57499993 2.175 1052672
-0.56499994 -0.60499996 2.155 1052688
-0.56499994 -0.60499996 2.165 1052688
-0.56499994 -0.59499997 2.165 1052672
-0.55499995 -0.59499997 2.165 1052672
-0.56499994 -0.58499992 2.155 1052672
-0.56499994 -0.58499992 2.165 1052672
-0.56499994 -0.57499993 2.155 1052672
-0.55499995 -0.58499992 2.155 1052672
-0.55499995 -0.58499992 2.165 1052672
-0.55499995 -0.57499993 2.155 1052672
-0.55499995 -0.57499993 2.165 1052672
-0.56499994 -0.57499993 2.1849999 1052672
-0.59499997 -0.53499997 2.075 1052688
-0.59499997 -0.53499997 2.085 1052688
-0.61499995 -0.52499992 2.095 1052688
-0.60499996 -0.51499993 2.085 1052688
-0.59499997 -0.51499993 2.085 1052688
-0.59499997 -0.51499993 2.095 1052688
-0.60499996 -0.49499995 2.075 1052688
-0.59499997 -0.50499994 2.085 1052688
-0.59499997 -0.52499992 2.115 1052688
-0.59499997 -0.52499992 2.135 1052672
-0.60499996 -0.50499994 2.115 1052688
-0.58499992 -0.53499997 2.135 1052672
-0.58499992 -0.52499992 2.125 2105360
-0.58499992 -0.51499993 2.125 1052672
-0.62499994 -0.49499995 2.175 1052688
-0.58499992 -0.56499994 2.175 1052672
-0.58499992 -0.56499994 2.1849999 1052688
-0.53499997 -0.60499996 2.125 2105360
-0.54499996 -0.60499996 2.135 1052688
-0.54499996 -0.60499996 2.145 2101264
-0.54499996 -0.59499997 2.135 1052688
-0.54499996 -0.59499997 2.145 1052688
-0.53499997 -0.60499996 2.135 2105360
-0.54499996 -0.58499992 2.145 1052672
-0.53499997 -0.58499992 2.145 1052672
-0.53499997 -0.57499993 2.135 1052688
-0.53499997 -0.57499993 2.145 1052672
-0.52499992 -0.59499997 2.145 1052672
-0.51499993 -0.60499996 2.145 2105360
-0.51499993 -0.59499997 2.145 1052672
-0.52499992 -0.57499993 2.125 1052672
-0.51499993 -0.58499992 2.125 1052672
-0.52499992 -0.58499992 2.135 1052672
-0.50499994 -0.60499996 2.145 2105360
-0.50499994 -0.59499997 2.145 1052688
-0.49499995 -0.60499996 2.135 2105360
-0.49499995 -0.59499997 2.135 1052688
-0.49499995 -0.58499992 2.135 1052672
-0.48499995 -0.59499997 2.125 2101264
-0.47499993 -0.59499997 2.125 1052688
-0.48499995 -0.60499996 2.135 2105360
-0.48499995 -0.59499997 2.135 1052688
-0.47499993 -0.60499996 2.135 2101264
-0.47499993 -0.60499996 2.145 2105360
-0.47499993 -0.59499997 2.135 1052672
-0.47499993 -0.58499992 2.125 1052688
-0.48499995 -0.58499992 2.135 1052672
-0.53499997 -0.61499995 2.165 1052688
-0.52499992 -0.61499995 2.155 1052688
-0.51499993 -0.61499995 2.155 2105360
-0.53499997 -0.63499993 2.2050002 1052688
-0.54499996 -0.64499992 2.2150002 2105360
-0.53499997 -0.64499992 2.2150002 1052688
-0.54499996 -0.59499997 2.155 1052672
-0.53499997 -0.60499996 2.155 2101264
-0.53499997 -0.59499997 2.155 1052672
-0.54499996 -0.58499992 2.155 1052672
-0.54499996 -0.57499993 2.165 1052672
-0.53499997 -0.58499992 2.155 1052672
-0.52499992 -0.60499996 2.155 2105360
-0.52499992 -0.59499997 2.155 1052688
-0.51499993 -0.60499996 2.155 2105360
-0.51499993 -0.59499997 2.155 1052672
-0.49499995 -0.61499995 2.155 1056784
-0.50499994 -0.62499994 2.175 2105360
-0.48499995 -0.61499995 2.165 1056784
-0.50499994 -0.59499997 2.155 1052672
-0.51499993 -0.56499994 2.105 1052672
-0.59499997 -0.48499995 2.0550001 1056784
-0.59499997 -0.48499995 2.0650001 1052688
-0.59499997 -0.41499993 2.0550001 1052688
-0.56499994 -0.45499995 2.0450001 1052688
-0.58499992 -0.41499993 2.0550001 1052688
-0.61499995 -0.38499993 2.0650001 2105360
-0.61499995 -0.37499994 2.0650001 1056784
-0.61499995 -0.35499993 2.0450001 1056784
-0.61499995 -0.35499993 2.0650001 1056784
-0.59499997 -0.35499993 2.0650001 1056784
-0.58499992 -0.39499995 2.0450001 1056784
-0.58499992 -0.39499995 2.0550001 1052688
-0.58499992 -0.35499993 2.0350001 1056784
-0.58499992 -0.36499995 2.0550001 1056784
-0.58499992 -0.33499995 2.0350001 1056784
-0.62499994 -0.48499995 2.095 1056784
-0.62499994 -0.47499993 2.095 1056784
-0.62499994 -0.47499993 2.105 1056784
-0.59499997 -0.47499993 2.085 1056784
-0.60499996 -0.48499995 2.095 1052688
-0.60499996 -0.48499995 2.105 1056784
-0.59499997 -0.45499995 2.085 1052688
-0.60499996 -0.46499994 2.105 1052688
-0.60499996 -0.45499995 2.095 1052688
-0.62499994 -0.47499993 2.115 1056784
-0.62499994 -0.47499993 2.125 1052688
-0.62499994 -0.48499995 2.135 1052688
-0.61499995 -0.48499995 2.145 1052688
-0.61499995 -0.47499993 2.135 1056784
-0.62499994 -0.45499995 2.115 1056784
-0.60499996 -0.48499995 2.115 1052688
-0.59499997 -0.45499995 2.125 1052688
-0.61499995 -0.43499994 2.105 1052688
-0.61499995 -0.41499993 2.085 1052688
-0.61499995 -0.41499993 2.095 1052688
-0.59499997 -0.44499993 2.085 1052688
-0.59499997 -0.43499994 2.075 1056784
-0.60499996 -0.43499994 2.105 1056784
-0.59499997 -0.44499993 2.095 1052688
-0.59499997 -0.43499994 2.105 1052688
-0.60499996 -0.42499995 2.085 1052688
-0.60499996 -0.41499993 2.075 1052688
-0.60499996 -0.41499993 2.095 1052688
-0.60499996 -0.41499993 2.105 1052688
-0.59499997 -0.42499995 2.095 1052688
-0.59499997 -0.41499993 2.095 1052688
-0.62499994 -0.41499993 2.115 1056784
-0.62499994 -0.41499993 2.125 1056784
-0.61499995 -0.41499993 2.115 1056784
-0.58499992 -0.46499994 2.085 1052688
-0.56499994 -0.44499993 2.135 2105360
-0.59499997 -0.48499995 2.155 1052688
-0.55499995 -0.43499994 2.155 2105360
-0.61499995 -0.39499995 2.085 1056784
-0.62499994 -0.40499994 2.105 2105360
-0.61499995 -0.39499995 2.105 1056784
-0.61499995 -0.38499993 2.085 1052688
-0.61499995 -0.37499994 2.085 1056784
-0.62499994 -0.37499994 2.105 1056784
-0.61499995 -0.38499993 2.105 1056784
-0.59499997 -0.40499994 2.075 1056784
-0.59499997 -0.40499994 2.085 1052688
-0.60499996 -0.38499993 2.085 1056784
-0.59499997 -0.37499994 2.095 1052688
-0.62499994 -0.40499994 2.125 1056784
-0.61499995 -0.39499995 2.115 1056784
-0.62499994 -0.37499994 2.115 1056784
-0.61499995 -0.38499993 2.115 1052688
-0.61499995 -0.37499994 2.115 1056784
-0.60499996 -0.38499993 2.115 1056784
-0.62499994 -0.36499995 2.075 1056784
-0.61499995 -0.35499993 2.075 1056784
-0.62499994 -0.36499995 2.095 1056784
-0.62499994 -0.36499995 2.105 1056784
-0.61499995 -0.36499995 2.095 1056784
-0.61499995 -0.35499993 2.095 1056784
-0.62499994 -0.33499995 2.085 1052688
-0.61499995 -0.34499994 2.075 1056784
-0.61499995 -0.34499994 2.085 1056784
-0.61499995 -0.33499995 2.075 1056784
-0.61499995 -0.33499995 2.085 1052688
-0.61499995 -0.34499994 2.105 1056784
-0.61499995 -0.33499995 2.095 1056784
-0.60499996 -0.35499993 2.075 1056784
-0.59499997 -0.36499995 2.075 1056784
-0.59499997 -0.35499993 2.075 1056784
-0.59499997 -0.35499993 2.085 1056784
-0.60499996 -0.35499993 2.095 1056784
-0.60499996 -0.33499995 2.075 1052688
-0.59499997 -0.33499995 2.075 1056784
-0.60499996 -0.36499995 2.135 1052688
-0.58499992 -0.39499995 2.105 1052688
-0.57499993 -0.38499993 2.085 1052688
-0.58499992 -0.35499993 2.075 1052688
-0.58499992 -0.35499993 2.095 1052688
-0.58499992 -0.34499994 2.095 1052688
-0.58499992 -0.34499994 2.115 2105376
-0.54499996 -0.41499993 2.095 1056784
-0.46499994 -0.59499997 2.125 2101264
-0.46499994 -0.60499996 2.135 2105360
-0.61499995 -0.63499993 2.2350001 1052688
-0.61499995 -0.62499994 2.2350001 1052672
-0.61499995 -0.31499994 2.0650001 1056784
-0.60499996 -0.32499993 2.0550001 1056784
-0.60499996 -0.31499994 2.0650001 1056784
-0.59499997 -0.32499993 2.0550001 1056784
-0.59499997 -0.32499993 2.0650001 1056784
-0.59499997 -0.31499994 2.0550001 1056784
-0.59499997 -0.31499994 2.0650001 1056784
-0.60499996 -0.30499995 2.0550001 1056784
-0.59499997 -0.30499995 2.0650001 1056784
-0.58499992 -0.31499994 2.0650001 1056784
-0.62499994 -0.32499993 2.085 1056784
-0.61499995 -0.32499993 2.085 1056784
-0.62499994 -0.31499994 2.105 1056784
-0.61499995 -0.31499994 2.095 1056784
-0.62499994 -0.30499995 2.085 1056784
-0.60499996 -0.31499994 2.075 1056784
-0.59499997 -0.32499993 2.075 1052688
-0.59499997 -0.31499994 2.075 1056784
-0.59499997 -0.32499993 2.105 1056784
-0.59499997 -0.31499994 2.105 1056784
-0.60499996 -0.30499995 2.085 1056784
-0.59499997 -0.30499995 2.085 1056784
-0.60499996 -0.30499995 2.095 1056784
-0.61499995 -0.30499995 2.115 1056784
-0.62499994 -0.30499995 2.135 1056784
-0.61499995 -0.30499995 2.145 1056800
-0.62499994 -0.30499995 2.155 2105376
-2.085 -1.3049999 3.645 9474176
-2.155 -1.3149999 3.7550001 9474176
-2.155 -1.3049999 3.7550001 9474160
-2.0549998 -1.295 3.635 9474176
-2.0349998 -1.295 3.655 9474176
-1.9449999 -1.295 3.7350001 1052672
-1.9349999 -1.295 3.7550001 8421488
-2.0449998 -1.145 2.825 6316144
-1.925 -1.165 2.7250001 5263440
-2.075 -0.97499996 2.905 1056784
-2.0049999 -1.1949999 3.0150001 1052688
-1.925 -1.2149999 2.915 3158080
-1.9549999 -1.135 2.895 6316160
-1.9549999 -1.135 2.9349999 1052704
-1.9349999 -1.145 2.915 1052704
-1.9449999 -1.135 2.9349999 1052688
-1.9849999 -1.1949999 2.9850001 0
-1.9449999 -1.165 2.9550002 1056800
-2.0349998 -0.99499995 2.9450002 2105360
-2.0349998 -0.98499995 2.9450002 2105360
-2.0249999 -0.97499996 2.905 2105376
-2.0249999 -0.97499996 2.915 2105376
-2.0049999 -0.98499995 2.9349999 1052688
-2.0249999 -0.98499995 2.9550002 2105376
-1.9549999 -1.125 2.925 6316144
-1.9549999 -1.0549999 2.9450002 1052672
-1.925 -1.1149999 2.905 1052688
-1.925 -1.1049999 2.885 1052688
-1.925 -1.1049999 2.905 1056800
-1.9449999 -1.125 2.925 1056800
-1.9449999 -1.125 2.9450002 2105376
-1.9449999 -1.0949999 2.925 1052688
-1.9449999 -1.1049999 2.9349999 1052688
-1.9349999 -1.1049999 2.9349999 2105376
-1.915 -1.0749999 2.895 1056784
-1.915 -1.0649999 2.905 1056784
-1.9449999 -1.0849999 2.925 1056784
-1.9349999 -1.0749999 2.925 1056784
-1.9449999 -1.0749999 2.9349999 1056784
-1.9349999 -1.0649999 2.925 1056784
-1.9449999 -1.0649999 2.9349999 1056784
-1.915 -1.0549999 2.915 2105376
-1.925 -1.0649999 2.9349999 2105376
-1.9349999 -1.1049999 2.9550002 2105392
-1.9449999 -1.0549999 2.9650002 2105376
-1.9549999 -1.045 2.9450002 1052672
-1.9849999 -0.98499995 2.885 5267552
-1.925 -1.015 2.905 1056784
-1.9449999 -1.045 2.9450002 1052688
-1.9449999 -1.035 2.9349999 1056784
-1.9449999 -1.035 2.9450002 1056784
-1.9349999 -1.025 2.9349999 1052688
-1.925 -1.035 2.925 2105360
-1.925 -1.005 2.885 2105376
-1.915 -1.005 2.875 8421504
-1.925 -1.005 2.905 2105376
-1.9449999 -1.045 2.9650002 2105376
-1.9449999 -1.035 2.9650002 2105376
-2.0049999 -0.95499992 2.845 2105360
-2.0049999 -0.94499993 2.835 1052688
-1.9349999 -0.94499993 2.7450001 7368816
-1.9349999 -0.95499992 2.7650001 1056800
-1.9349999 -0.96499991 2.7850001 1052704
-1.9449999 -0.96499991 2.8150001 2105376
-1.9449999 -0.94499993 2.845 6316128
-1.925 -0.96499991 2.835 1056800
-2.085 -0.96499991 2.905 1052688
-2.0549998 -0.96499991 2.875 1056784
-2.0650001 -0.96499991 2.895 1052688
-2.0449998 -0.96499991 2.885 1056784
-1.9749999 -0.96499991 2.895 1056800
-1.9549999 -0.96499991 2.875 3158080
-1.925 -0.95499992 2.895 7372912
-1.915 -0.92499995 2.905 2105360
-1.9349999 -0.89499992 2.9349999 2105360
-1.925 -0.91499996 2.925 1056784
-1.915 -0.92499995 2.925 2105376
-1.925 -0.91499996 2.9349999 2105376
-1.925 -0.90499991 2.915 2105360
-1.925 -0.89499992 2.925 1056784
-1.925 -0.90499991 2.9349999 2105376
-1.9649999 -0.90499991 2.9750001 1052672
-1.9449999 -0.93499994 2.9550002 1056784
-1.925 -0.94499993 2.9550002 3158064
-1.925 -0.94499993 2.9650002 3158064
-1.9449999 -0.93499994 2.9950001 3158048
-1.9349999 -0.91499996 2.9750001 3158064
-1.9349999 -0.90499991 2.9650002 2105376
-1.925 -0.89499992 2.9550002 3158064
-1.925 -0.88499993 2.925 2105360
-1.915 -0.88499993 2.925 2105376
-1.925 -0.88499993 2.9349999 2105376
-1.925 -0.87499994 2.9450002 2105376
-1.915 -0.88499993 2.9450002 3158064
-1.925 -0.86499995 2.925 2105360
-1.925 -0.85499996 2.925 2105360
-1.915 -0.86499995 2.9450002 4210736
-1.9349999 -0.81499994 2.9450002 2105360
-1.925 -0.84499997 2.925 1056784
-1.925 -0.83499992 2.925 1056784
-1.925 -0.83499992 2.9349999 1056784
-1.925 -0.83499992 2.9450002 2105376
-1.915 -0.84499997 2.9349999 2105376
-1.915 -0.84499997 2.9450002 4210752
-1.915 -0.82499993 2.9349999 2105376
-1.9549999 -0.87499994 2.9950001 2105376
-1.9549999 -0.87499994 3.0150001 4206640
-1.9549999 -0.83499992 2.9750001 2105360
-1.9449999 -0.88499993 2.9650002 2105360
-1.9349999 -0.85499996 2.9650002 2105360
-1.9449999 -0.86499995 2.9950001 4210752
-1.9349999 -0.83499992 2.9850001 4206640
-1.9349999 -0.82499993 2.9650002 2105376
-1.9449999 -0.82499993 2.9950001 3158064
-1.9449999 -0.81499994 3.0050001 4206640
-1.9749999 -0.95499992 3.0350001 3158048
-1.915 -0.79499996 2.925 2105360
-1.925 -0.80499995 2.9349999 2105360
-1.925 -0.79499996 2.9349999 1056784
-1.915 -0.80499995 2.9349999 2105376
-1.915 -0.79499996 2.9450002 4206640
-1.925 -0.78499997 2.9450002 1056784
-1.925 -0.77499992 2.9450002 1056784
-1.915 -0.78499997 2.9349999 2105360
-1.915 -0.76499993 2.925 1056784
-1.925 -0.76499993 2.9450002 1056784
-1.915 -0.76499993 2.9450002 3158064
-1.9549999 -0.77499992 2.9850001 2105360
-1.9549999 -0.74499995 3.0050001 1056784
-1.9349999 -0.77499992 2.9650002 2105360
-1.925 -0.80499995 2.9550002 3158064
-1.925 -0.80499995 2.9850001 7364704
-1.925 -0.78499997 2.9650002 3158064
-1.925 -0.77499992 2.9550002 2105360
-1.915 -0.78499997 2.9550002 4206640
-1.915 -0.77499992 2.9550002 4210736
-1.9449999 -0.75499994 2.9750001 1052672
-1.9349999 -0.74499995 2.9550002 1056784
-1.9349999 -0.74499995 2.9650002 1056784
-1.9349999 -0.74499995 2.9850001 2105376
-1.9349999 -0.73499995 2.9850001 2105376
-1.925 -0.74499995 2.9850001 3158080
-1.925 -0.73499995 2.9850001 3158064
-1.9449999 -0.73499995 2.9950001 2105376
-1.9449999 -0.73499995 3.0150001 4210752
-1.915 -0.71499991 2.9450002 2105376
-1.915 -0.70499992 2.9450002 1056784
-1.915 -0.69499993 2.9450002 1056784
-1.915 -0.68499994 2.9450002 1056784
-1.915 -0.66499996 2.9450002 1056784
-1.9349999 -0.71499991 2.9650002 1056784
-1.925 -0.72499996 2.9650002 1056784
-1.915 -0.70499992 2.9650002 2105376
-1.915 -0.69499993 2.9650002 4210752
-1.925 -0.70499992 2.9750001 3158080
-1.925 -0.68499994 2.9650002 1056784
-1.915 -0.68499994 2.9550002 2105360
-1.915 -0.68499994 2.9650002 2105376
-1.915 -0.67499995 2.9650002 4210752
-1.925 -0.67499995 2.9850001 4210752
-1.915 -0.68499994 2.9750001 3158064
-1.915 -0.66499996 2.9550002 1056784
-1.915 -0.65499991 2.9650002 2109472
-1.915 -0.65499991 2.9750001 4206640
-1.9449999 -0.65499991 3.0050001 1056784
-1.9949999 -0.67499995 3.0650001 1056784
-1.9549999 -0.75499994 3.0450001 11575456
-2.5049999 -1.2049999 3.7450001 8421472
-2.5449998 -1.175 3.8150001 11579552
-2.5349998 -1.145 3.7650001 11579552
-2.5449998 -1.155 3.8050001 11579552
-2.5449998 -1.145 3.8050001 11579552
-2.5449998 -1.145 3.8150001 11579552
-2.5349998 -1.135 3.8150001 11579552
-2.5449998 -1.1149999 3.8050001 11579552
-2.5349998 -1.125 3.8050001 11579552
-2.5449998 -1.1149999 3.825 11579552
-2.5449998 -1.1049999 3.8150001 11579552
-2.5449998 -1.0949999 3.825 11579552
-2.5349998 -1.1049999 3.8150001 11579552
-2.5449998 -1.0749999 3.8050001 11579552
-2.5349998 -1.0749999 3.8150001 11579552
-2.5449998 -1.0649999 3.8050001 11579552
-2.5449998 -1.0549999 3.7950001 11579552
-2.5449998 -1.0549999 3.8050001 11579552
-2.5349998 -1.0649999 3.8150001 11579552
-2.5349998 -1.0549999 3.825 11579552
-2.5249999 -1.0749999 3.825 11579552
-2.5149999 -1.035 3.7850001 11579552
-2.5449998 -1.045 3.7950001 11579552
-2.5449998 -1.045 3.8150001 11579552
-2.5449998 -1.035 3.8150001 11579552
-2.5349998 -1.025 3.825 11579552
-2.5249999 -1.025 3.7950001 11579552
-2.5449998 -0.99499995 3.8150001 11579536
-2.5449998 -0.99499995 3.825 11575440
-2.5249999 -0.99499995 3.8050001 11579552
-2.5149999 -0.99499995 3.8150001 11579536
-2.335 -1.2149999 3.8150001 4210736
-2.325 -1.2249999 3.7950001 4210736
-2.325 -1.1949999 3.7850001 5263424
-2.3150001 -1.1949999 3.7850001 4210736
-2.335 -1.145 3.7750001 7368800
-2.3150001 -1.165 3.7650001 5263424
-2.325 -1.165 3.7750001 4214848
-2.325 -1.155 3.7750001 6320208
-2.325 -1.155 3.7850001 5263424
-2.3150001 -1.155 3.7750001 4214832
-2.325 -1.135 3.7650001 7368800
-2.3150001 -1.135 3.7750001 5263424
-2.2749999 -1.175 3.7450001 6316096
-2.2849998 -1.155 3.7350001 5263424
-2.3049998 -1.175 3.7550001 4214848
-2.2949998 -1.175 3.7550001 4214832
-2.3049998 -1.155 3.7750001 4214848
-2.2949998 -1.145 3.7650001 9474176
-2.2949998 -1.135 3.7650001 8421472
-2.3049998 -1.135 3.7750001 4214832
-2.2949998 -1.145 3.7850001 7368784
-2.2849998 -1.155 3.7550001 9474176
-2.335 -1.125 3.7750001 7368800
-2.335 -1.125 3.7850001 7368800
-2.335 -1.1149999 3.7850001 7368800
-2.325 -1.125 3.7850001 5263424
-2.3150001 -1.125 3.7750001 5263424
-2.325 -1.1049999 3.7850001 5263424
-2.325 -1.0949999 3.7850001 5263424
-2.325 -1.0849999 3.7750001 7368800
-2.325 -1.0849999 3.7850001 5263424
-2.325 -1.0749999 3.7750001 7368800
-2.325 -1.0749999 3.7850001 5263424
-2.3150001 -1.0649999 3.7550001 7368800
-2.3150001 -1.0649999 3.7750001 4210736
-2.3150001 -1.0549999 3.7750001 4210736
-2.325 -1.045 3.7750001 7368800
-2.3150001 -1.025 3.7750001 4214848
-2.345 -1.025 3.8050001 6320224
-2.335 -1.015 3.8050001 4214848
-2.325 -1.015 3.7950001 4210736
-2.325 -0.99499995 3.7850001 4210736
-2.3150001 -0.98499995 3.7750001 4210736
-2.2949998 -1.0949999 3.7450001 4210736
-2.2849998 -1.1149999 3.7450001 4210736
-2.2749999 -1.1149999 3.7450001 10526864
-2.2849998 -1.1049999 3.7350001 4210736
-2.2749999 -1.0749999 3.7250001 4210736
-2.2749999 -1.0849999 3.7350001 4210736
-2.2849998 -1.0649999 3.7350001 4210736
-2.2549999 -1.0949999 3.7050002 10526864
-2.2449999 -1.0949999 3.7050002 10526864
-2.2449999 -1.0849999 3.6950002 11579536
-2.2449999 -1.0749999 3.6950002 11575440
-2.2349999 -1.0749999 3.7050002 13684912
-2.2349999 -1.0549999 3.6849999 10526864
-2.2449999 -1.0549999 3.6950002 10526864
-2.2349999 -1.0649999 3.7050002 10526848
-2.2349999 -1.0549999 3.7150002 10526848
-2.2749999 -1.125 3.7550001 10526848
-2.2949998 -1.0649999 3.7650001 3162160
-2.2649999 -1.1049999 3.7650001 10526864
-2.2449999 -1.0649999 3.7550001 10526848
-2.2749999 -1.035 3.7250001 3158048
-2.2849998 -1.045 3.7350001 3158048
-2.2849998 -1.025 3.7450001 2105360
-2.2849998 -1.015 3.7450001 3158048
-2.2849998 -1.005 3.7450001 3153936
-2.2749999 -0.98499995 3.7450001 7368800
-2.2749999 -0.97499996 3.7450001 5263424
-2.2549999 -1.025 3.7050002 11579552
-2.2449999 -1.045 3.6950002 11579552
-2.2449999 -1.035 3.7050002 11579552
-2.2349999 -1.015 3.6950002 11579536
-2.2649999 -1.015 3.7250001 11579552
-2.2549999 -0.99499995 3.7050002 10522752
-2.2349999 -1.005 3.7050002 11579536
-2.2349999 -0.99499995 3.7050002 11579536
-2.2349999 -0.97499996 3.6950002 11579536
-2.2549999 -1.005 3.7150002 11575440
-2.2649999 -0.98499995 3.7250001 8421488
-2.2449999 -0.97499996 3.7150002 11579536
-2.2349999 -0.98499995 3.7250001 10526864
-2.3049998 -1.035 3.7550001 4210736
-2.3049998 -1.025 3.7550001 4214848
-2.3049998 -1.005 3.7750001 3158048
-2.3049998 -0.99499995 3.7850001 2109472
-2.3049998 -0.98499995 3.7750001 2105360
-2.3049998 -0.97499996 3.7750001 3153936
-2.5449998 -0.95499992 3.8150001 11575456
-2.5449998 -0.95499992 3.825 11575440
-2.5349998 -0.94499993 3.825 10526880
-2.5449998 -0.92499995 3.8150001 10526880
-2.5349998 -0.92499995 3.8150001 10526880
-2.5449998 -0.90499991 3.8150001 11575456
-2.5449998 -0.89499992 3.825 10526880
-2.5349998 -0.89499992 3.825 11575440
-2.5249999 -0.91499996 3.8150001 11575456
-2.5249999 -0.91499996 3.825 10526864
-2.5449998 -0.88499993 3.8150001 10526864
-2.5449998 -0.87499994 3.825 11575456
-2.5249999 -0.86499995 3.825 10526880
-2.5249999 -0.85499996 3.825 10526880
-2.5349998 -0.76499993 3.825 10526864
-2.5349998 -0.74499995 3.825 10526864
-2.5349998 -0.73499995 3.825 10526864
-2.5249999 -0.75499994 3.8150001 10526864
-2.5149999 -0.75499994 3.8150001 10526864
-2.5149999 -0.74499995 3.8150001 10526864
-2.5149999 -0.74499995 3.825 9478288
-2.5149999 -0.73499995 3.825 10526864
-2.3150001 -0.94499993 3.7750001 4214848
-2.3150001 -0.95499992 3.8050001 3158048
-2.3150001 -0.96499991 3.8150001 3158048
-2.325 -0.94499993 3.7950001 5263424
-2.3150001 -0.94499993 3.7950001 4210736
-2.3150001 -0.92499995 3.7750001 5263424
-2.3150001 -0.92499995 3.7950001 3158048
-2.3150001 -0.91499996 3.7950001 3158048
-2.325 -0.90499991 3.8150001 3158048
-2.335 -0.88499993 3.825 3158048
-2.335 -0.87499994 3.8150001 6316112
-2.2349999 -0.96499991 3.7050002 11579552
-2.3049998 -0.96499991 3.7550001 4210736
-2.3049998 -0.95499992 3.7650001 4214848
-2.3049998 -0.96499991 3.7850001 3158048
-2.3049998 -0.93499994 3.7850001 3158048
-2.3049998 -0.95499992 3.7950001 2105360
-2.3049998 -0.94499993 3.8050001 3158048
-2.3049998 -0.91499996 3.7650001 5263424
-2.3049998 -0.90499991 3.7750001 5267536
-2.2949998 -0.90499991 3.7950001 3158048
-1.925 -1.2449999 3.425 8421488
-2.1849999 -1.2249999 3.7450001 1052672
-2.1949999 -1.2149999 3.7850001 1052672
-2.1849999 -1.2149999 3.7550001 1052672
-2.175 -1.2249999 3.7550001 1052672
-2.1849999 -1.2249999 3.7850001 1052672
-2.1849999 -1.2149999 3.7750001 1052672
-2.1849999 -1.2149999 3.7850001 1052672
-2.165 -1.2249999 3.7550001 1052672
-2.165 -1.2249999 3.7650001 3158048
-2.165 -1.2149999 3.7750001 3158048
-2.155 -1.2249999 3.7750001 3158048
-2.155 -1.2149999 3.7750001 3158048
-2.175 -1.155 3.7350001 1052672
-2.165 -1.135 3.7450001 1052672
-2.1849999 -1.1949999 3.7750001 1052672
-2.1849999 -1.1949999 3.7850001 1052672
-2.175 -1.1949999 3.7750001 1052672
-2.1849999 -1.1849999 3.7750001 1052672
-2.1849999 -1.175 3.7750001 1052688
-2.1849999 -1.175 3.7850001 1052672
-2.175 -1.175 3.7850001 1052672
-2.155 -1.2049999 3.7650001 3158048
-2.165 -1.2049999 3.7750001 2105360
-2.165 -1.1949999 3.7750001 2101264
-2.155 -1.175 3.7650001 4206640
-2.165 -1.1849999 3.7850001 1052672
-2.155 -1.1849999 3.7750001 3158048
-2.1849999 -1.165 3.7750001 1052688
-2.1849999 -1.165 3.7850001 1052672
-2.175 -1.155 3.7750001 1052672
-2.175 -1.145 3.7550001 1052672
-2.165 -1.165 3.7850001 1052672
-2.165 -1.155 3.7850001 1052672
-2.155 -1.165 3.7750001 5259328
-2.155 -1.155 3.7850001 5263424
-2.165 -1.145 3.7650001 1052672
-2.165 -1.145 3.7750001 0
-2.155 -1.145 3.7750001 5263424
-2.135 -1.285 3.7150002 8421488
-2.115 -1.2149999 3.7450001 3158048
-2.095 -1.2149999 3.7450001 3158048
-2.085 -1.2149999 3.7450001 3158048
-2.145 -1.2349999 3.7650001 2105376
-2.145 -1.2149999 3.7650001 3158048
-2.135 -1.2249999 3.7550001 2109472
-2.125 -1.2149999 3.7550001 3158048
-2.115 -1.2149999 3.7550001 3158048
-2.105 -1.2149999 3.7550001 3158048
-2.095 -1.2149999 3.7650001 3158048
-2.085 -1.2149999 3.7650001 3158048
-2.075 -1.2249999 3.7550001 3158048
-2.075 -1.2249999 3.7750001 3158048
-2.145 -1.1949999 3.7650001 3158048
-2.145 -1.2049999 3.7750001 3158048
-2.145 -1.1949999 3.7750001 3158048
-2.135 -1.2049999 3.7850001 3158048
-2.135 -1.1949999 3.7750001 3158048
-2.135 -1.1849999 3.7650001 3158048
-2.145 -1.175 3.7750001 4206624
-2.125 -1.1949999 3.7750001 3158048
-2.115 -1.2049999 3.7750001 3158048
-2.115 -1.1949999 3.7750001 3158048
-2.125 -1.1849999 3.7650001 3158048
-2.125 -1.175 3.7650001 4210736
-2.125 -1.175 3.7750001 4210736
-2.115 -1.1849999 3.7750001 3158048
-2.115 -1.175 3.7750001 4210736
-2.145 -1.165 3.7750001 5259312
-2.145 -1.155 3.7750001 5263424
-2.135 -1.145 3.7650001 5263424
-2.125 -1.165 3.7650001 5263424
-2.125 -1.155 3.7750001 5263424
-2.115 -1.165 3.7750001 5263424
-2.115 -1.155 3.7750001 5263424
-2.125 -1.135 3.7550001 6316112
-2.105 -1.2049999 3.7750001 3158048
-2.105 -1.1949999 3.7850001 3158048
-2.095 -1.2049999 3.7750001 3158048
-2.105 -1.1849999 3.7750001 3158048
-2.105 -1.1849999 3.7850001 3158048
-2.105 -1.175 3.7850001 3158048
-2.095 -1.1849999 3.7750001 3158048
-2.095 -1.175 3.7850001 3158048
-2.085 -1.1949999 3.7750001 3158048
-2.075 -1.1849999 3.7650001 3158048
-2.085 -1.175 3.7850001 3158048
-2.075 -1.175 3.8150001 5263424
-2.105 -1.165 3.7750001 5263424
-2.105 -1.165 3.7850001 5263408
-2.105 -1.155 3.7750001 5263424
-2.095 -1.165 3.7850001 5263424
-2.105 -1.135 3.7550001 6316112
-2.095 -1.135 3.7550001 6316112
-2.085 -1.155 3.7750001 5263424
-2.075 -1.165 3.7850001 5263424
-2.075 -1.155 3.7750001 5263424
-2.085 -1.135 3.7550001 6316112
-2.075 -1.135 3.7550001 6316112
-2.085 -1.165 3.7950001 5263424
-2.085 -1.165 3.825 6312000
-2.1949999 -1.015 3.665 10526864
-2.1849999 -1.015 3.645 10526848
-2.2249999 -1.0749999 3.6849999 10526848
-2.2249999 -1.0649999 3.6849999 13684928
-2.2249999 -1.0549999 3.675 11579536
-2.165 -1.125 3.7350001 1052672
-2.155 -1.125 3.7450001 1052672
-2.2249999 -1.045 3.6849999 11579536
-2.2249999 -1.035 3.6849999 11579536
-2.2149999 -1.035 3.675 10526864
-2.2249999 -1.025 3.6849999 11579536
-2.2249999 -1.015 3.6849999 11579536
-2.2049999 -1.025 3.675 10526864
-2.2049999 -1.015 3.675 10526864
-2.2149999 -1.005 3.6849999 10526864
-2.2149999 -0.99499995 3.6849999 10526864
-2.2149999 -0.98499995 3.6849999 10526864
-2.2049999 -1.005 3.6849999 10526864
-2.2049999 -0.99499995 3.6849999 10526864
-2.2049999 -0.98499995 3.6849999 10526864
-2.145 -1.125 3.7450001 1052672
-2.135 -1.125 3.7450001 7368800
-2.135 -1.1049999 3.7250001 1052672
-2.125 -1.125 3.7450001 7368800
-2.095 -1.1149999 3.7250001 6320224
-2.105 -1.125 3.7350001 6320224
