# .PCD v0.7 - Point Cloud Data file format
VERSION 0.7
FIELDS x y z rgba
SIZE 4 4 4 4
TYPE F F F U
COUNT 1 1 1 1
WIDTH 1236
HEIGHT 1
VIEWPOINT 0 0 0 1 0 0 0
POINTS 1236
DATA ascii
-0.96499991 -0.91499996 2.4850001 3158048
-0.95499992 -0.92499995 2.4750001 3158048
-0.95499992 -0.92499995 2.4850001 3158048
-0.95499992 -0.91499996 2.4850001 3158048
-0.96499991 -0.90499991 2.4850001 2109472
-0.96499991 -0.89499992 2.4850001 1056800
-0.95499992 -0.90499991 2.4850001 2109472
-0.96499991 -0.90499991 2.4950001 2105376
-0.94499993 -1.015 1.975 9474176
-0.93499994 -0.99499995 1.955 8421488
-0.93499994 -1.015 2.0350001 7368800
-0.91499996 -1.035 2.0450001 8421488
-0.89499992 -1.025 2.0250001 8421488
-0.87499994 -1.035 2.0250001 9474176
-0.87499994 -1.025 2.0050001 9474176
-0.88499993 -1.025 2.0250001 7368816
-0.87499994 -1.025 2.0150001 8425600
-0.89499992 -1.025 2.0650001 6316128
-0.88499993 -1.045 2.0350001 9474176
-0.88499993 -1.015 2.0450001 7368816
-0.88499993 -1.015 2.0650001 6316128
-0.90499991 -0.99499995 2.0150001 6320224
-0.81499994 -1.0549999 2.0550001 9474176
-0.80499995 -1.0549999 2.0550001 8421488
-0.79499996 -1.0549999 2.0550001 8421488
-0.79499996 -1.0549999 2.0650001 7368800
-0.83499992 -1.005 1.975 8421488
-0.82499993 -1.015 1.975 9474176
-0.82499993 -0.99499995 1.9450001 9474176
-0.81499994 -1.005 1.955 8421488
-0.85499996 -1.035 2.0250001 8421488
-0.86499995 -1.025 2.0050001 8425584
-0.86499995 -1.015 2.0250001 7368816
-0.84499997 -1.035 2.0250001 7372912
-0.83499992 -1.015 1.995 8421488
-0.83499992 -1.025 2.0150001 7368800
-0.86499995 -1.045 2.0350001 9474176
-0.85499996 -1.025 2.0350001 7372912
-0.83499992 -1.045 2.0650001 6320224
-0.84499997 -1.025 2.0650001 6316128
-0.82499993 -1.035 2.0150001 8421488
-0.81499994 -1.035 2.0250001 8425600
-0.80499995 -1.035 2.0250001 8425600
-0.80499995 -1.015 2.0250001 6316128
-0.79499996 -1.025 2.0250001 7368816
-0.82499993 -1.045 2.0350001 8421488
-0.81499994 -1.035 2.0350001 6320224
-0.81499994 -1.015 2.0450001 6316128
-0.81499994 -1.025 2.0550001 6316128
-0.80499995 -1.035 2.0550001 3158064
-0.79499996 -1.045 2.0550001 6316128
-0.80499995 -1.025 2.0350001 6320224
-0.79499996 -1.015 2.0450001 6316128
-0.80499995 -1.025 2.0550001 5267536
-0.80499995 -1.025 2.0650001 6316128
-0.79499996 -1.025 2.0550001 6316128
-0.79499996 -1.005 2.0350001 6316128
-0.94499993 -1.0649999 2.095 9474176
-0.92499995 -1.0549999 2.105 7368816
-0.93499994 -1.0549999 2.115 7368816
-0.89499992 -1.0549999 2.105 6320224
-0.87499994 -1.0549999 2.105 7368816
-0.90499991 -1.0549999 2.125 6320224
-0.89499992 -1.0549999 2.145 6316128
-0.87499994 -1.0749999 2.145 6316128
-0.87499994 -1.0549999 2.125 6316128
-0.88499993 -1.0649999 2.135 6320224
-0.87499994 -1.0649999 2.135 6316128
-0.92499995 -1.0549999 2.1849999 5263424
-0.93499994 -1.0549999 2.2050002 4210736
-0.94499993 -1.0549999 2.2250001 5263440
-0.92499995 -1.0749999 2.2250001 5263408
-0.92499995 -1.0649999 2.2050002 4210736
-0.92499995 -1.0649999 2.2150002 5263408
-0.91499996 -1.0649999 2.2250001 5263424
-0.90499991 -1.0749999 2.165 6316128
-0.89499992 -1.0749999 2.155 6320224
-0.90499991 -1.0849999 2.1849999 6316128
-0.89499992 -1.0849999 2.1849999 6320224
-0.89499992 -1.0549999 2.155 6316128
-0.89499992 -1.0549999 2.165 5263424
-0.87499994 -1.0749999 2.155 6316128
-0.88499993 -1.0549999 2.155 3158064
-0.88499993 -1.0649999 2.1849999 5267536
-0.88499993 -1.0549999 2.175 5263440
-0.88499993 -1.0549999 2.1849999 5263424
-0.89499992 -1.0849999 2.2150002 6316128
-0.90499991 -1.0649999 2.1950002 5263424
-0.90499991 -1.0549999 2.2050002 5263424
-0.89499992 -1.0649999 2.1950002 5263424
-0.89499992 -1.0649999 2.2050002 5263424
-0.89499992 -1.0649999 2.2250001 5263424
-0.89499992 -1.0549999 2.2150002 5263440
-0.88499993 -1.0749999 2.1950002 6316128
-0.94499993 -1.035 2.085 6320224
-0.94499993 -1.015 2.085 6316112
-0.93499994 -1.025 2.075 6316128
-0.93499994 -1.015 2.075 6316128
-0.94499993 -1.025 2.105 6316112
-0.94499993 -1.025 2.115 6316112
-0.92499995 -1.035 2.115 6316112
-0.92499995 -1.015 2.125 5263440
-0.91499996 -1.025 2.115 5263440
-0.91499996 -1.005 2.105 5263408
-0.90499991 -1.045 2.075 8421488
-0.89499992 -1.035 2.075 7368816
-0.90499991 -1.045 2.105 6316128
-0.90499991 -1.035 2.095 7368800
-0.90499991 -1.025 2.095 6316128
-0.87499994 -1.035 2.075 6316128
-0.88499993 -1.045 2.105 7368800
-0.88499993 -1.025 2.075 6316128
-0.89499992 -1.035 2.115 6316128
-0.90499991 -1.045 2.145 5263440
-0.88499993 -1.045 2.135 6316128
-0.87499994 -1.035 2.135 5263424
-0.94499993 -1.045 2.1849999 5263424
-0.92499995 -1.045 2.155 5263424
-0.91499996 -1.045 2.175 5263408
-0.91499996 -1.035 2.175 4214848
-0.91499996 -1.045 2.1950002 4210736
-0.89499992 -1.045 2.155 5263424
-0.85499996 -1.0549999 2.085 6316128
-0.85499996 -1.0549999 2.115 6316128
-0.85499996 -1.0549999 2.125 6316128
-0.86499995 -1.0549999 2.135 4210752
-0.85499996 -1.0549999 2.145 6316128
-0.81499994 -1.0549999 2.125 6316128
-0.82499993 -1.0649999 2.145 6316128
-0.83499992 -1.0549999 2.155 5263440
-0.83499992 -1.0549999 2.175 4214848
-0.85499996 -1.0649999 2.2050002 5259312
-0.86499995 -1.0649999 2.2250001 4210736
-0.86499995 -1.0549999 2.2250001 4214848
-0.84499997 -1.0649999 2.2050002 4210736
-0.83499992 -1.0649999 2.2150002 4210736
-0.82499993 -1.0649999 2.165 5267552
-0.82499993 -1.0549999 2.155 5263440
-0.82499993 -1.0549999 2.165 4210736
-0.83499992 -1.045 2.075 6316128
-0.85499996 -1.035 2.145 5263424
-0.82499993 -1.045 2.085 6316128
-0.81499994 -1.025 2.075 5267552
-0.81499994 -1.025 2.105 5263424
-0.79499996 -1.045 2.085 6316128
-0.79499996 -1.035 2.085 5263440
-0.79499996 -1.045 2.095 5263440
-0.82499993 -1.035 2.125 5267536
-0.82499993 -1.045 2.135 5267552
-0.82499993 -1.035 2.145 4210736
-0.79499996 -1.035 2.115 5263440
-0.79499996 -1.035 2.145 3158048
-0.83499992 -1.045 2.155 5263424
-0.86499995 -1.045 2.2050002 4214848
-0.85499996 -1.035 2.2050002 5263440
-0.83499992 -1.045 2.2050002 6316128
-0.81499994 -1.035 2.155 4210736
-0.82499993 -1.045 2.175 4214832
-0.78499997 -1.0549999 2.0550001 7368800
-0.74499995 -1.0549999 2.0550001 3158048
-0.71499991 -1.0549999 2.0450001 8421488
-0.77499992 -0.99499995 1.965 6316128
-0.74499995 -1.025 1.985 1056784
-0.74499995 -1.015 1.985 7372896
-0.73499995 -1.015 1.985 2109456
-0.72499996 -1.025 1.985 1056784
-0.71499991 -1.015 1.985 4210736
-0.77499992 -1.035 2.0150001 7368800
-0.78499997 -1.025 2.0050001 7368816
-0.78499997 -1.015 2.0250001 6316128
-0.76499993 -1.025 2.0050001 7368800
-0.75499994 -1.025 2.0150001 2105360
-0.78499997 -1.045 2.0450001 8421488
-0.78499997 -1.035 2.0350001 7368800
-0.78499997 -1.025 2.0350001 6320224
-0.77499992 -1.015 2.0350001 5263440
-0.78499997 -1.025 2.0550001 5263440
-0.77499992 -1.005 1.995 6316128
-0.74499995 -1.025 1.995 1056784
-0.73499995 -1.025 2.0150001 1052688
-0.72499996 -1.035 2.0150001 7368800
-0.72499996 -1.035 2.0250001 6316112
-0.72499996 -1.025 1.995 2105360
-0.71499991 -1.025 2.0050001 6316112
-0.71499991 -1.015 2.0050001 6316128
-0.72499996 -1.025 2.0250001 6316128
-0.71499991 -1.025 2.0150001 6316112
-0.73499995 -1.035 2.0450001 4210736
-0.74499995 -1.025 2.0350001 0
-0.73499995 -1.025 2.0450001 6320224
-0.73499995 -1.025 2.0650001 6316128
-0.72499996 -1.045 2.0450001 7368800
-0.72499996 -1.035 2.0450001 6316112
-0.72499996 -1.035 2.0650001 5263440
-0.71499991 -1.045 2.0650001 6320224
-0.71499991 -1.035 2.0650001 5263440
-0.72499996 -1.015 2.0350001 6316128
-0.73499995 -1.005 2.0150001 1052688
-0.73499995 -0.99499995 2.0150001 1052688
-0.74499995 -0.98499995 2.0050001 1052688
-0.73499995 -0.97499996 2.0150001 1052688
-0.72499996 -1.005 2.0050001 1052688
-0.72499996 -0.99499995 2.0150001 1052672
-0.72499996 -0.97499996 1.995 1052688
-0.74499995 -1.005 2.0450001 1052688
-0.74499995 -0.99499995 2.0350001 1056768
-0.73499995 -0.99499995 2.0450001 1052688
-0.73499995 -0.98499995 2.0350001 1052688
-0.64499992 -1.0549999 2.0650001 7368800
-0.69499993 -1.015 1.985 7368800
-0.68499994 -1.005 1.955 8421472
-0.68499994 -1.005 1.965 8421488
-0.64499992 -1.025 1.985 2105360
-0.64499992 -1.015 1.985 3158048
-0.63499993 -1.015 1.975 2105360
-0.63499993 -1.005 1.965 2109472
-0.64499992 -1.005 1.985 1056784
-0.63499993 -0.98499995 1.965 1056784
-0.63499993 -0.97499996 1.965 1056784
-0.69499993 -1.025 2.0050001 7368800
-0.69499993 -1.015 1.995 7368816
-0.69499993 -1.015 2.0050001 7368800
-0.70499992 -1.025 2.0250001 6316128
-0.67499995 -1.035 2.0050001 7368800
-0.68499994 -1.035 2.0150001 8421488
-0.68499994 -1.025 1.995 8421488
-0.68499994 -1.015 1.995 7368800
-0.67499995 -1.025 2.0150001 7368800
-0.70499992 -1.035 2.0450001 7368800
-0.69499993 -1.035 2.0350001 6320224
-0.69499993 -1.035 2.0450001 6316128
-0.70499992 -1.035 2.0550001 6316128
-0.68499994 -1.045 2.0350001 8421488
-0.68499994 -1.035 2.0350001 7368800
-0.68499994 -1.035 2.0450001 7368800
-0.67499995 -1.035 2.0350001 6316128
-0.68499994 -1.035 2.0550001 6320224
-0.67499995 -1.045 2.0550001 3158048
-0.67499995 -1.035 2.0550001 6316128
-0.67499995 -1.005 2.0350001 5267536
-0.66499996 -1.035 2.0250001 6320224
-0.65499991 -1.035 2.0150001 2105360
-0.66499996 -1.025 2.0050001 5267520
-0.64499992 -1.035 2.0050001 2105360
-0.63499993 -1.045 2.0250001 9474176
-0.63499993 -1.035 2.0250001 4210736
-0.64499992 -1.015 1.995 2105360
-0.65499991 -1.025 2.0550001 1052688
-0.64499992 -1.045 2.0450001 2105360
-0.64499992 -1.025 2.0650001 1052672
-0.65499991 -1.005 1.995 1056784
-0.66499996 -0.99499995 2.0150001 3158048
-0.65499991 -1.005 2.0250001 1056784
-0.65499991 -0.99499995 2.0150001 3158064
-0.64499992 -0.99499995 1.995 1056784
-0.63499993 -0.99499995 2.0150001 1052688
-0.63499993 -0.98499995 1.995 1052672
-0.64499992 -0.99499995 2.0450001 0
-0.78499997 -1.0549999 2.085 6316128
-0.75499994 -1.0549999 2.145 5263440
-0.71499991 -1.0549999 2.105 6316128
-0.73499995 -1.0549999 2.115 5263440
-0.72499996 -1.0649999 2.125 6316128
-0.72499996 -1.0549999 2.115 6316112
-0.72499996 -1.0649999 2.145 5267536
-0.76499993 -1.0549999 2.165 5263424
-0.76499993 -1.0549999 2.175 4210752
-0.75499994 -1.0549999 2.1849999 4210752
-0.77499992 -1.0649999 2.1950002 4210752
-0.78499997 -1.0649999 2.2150002 1052688
-0.77499992 -1.0649999 2.2150002 4210736
-0.77499992 -1.0549999 2.2250001 5263440
-0.76499993 -1.0749999 2.2250001 4210736
-0.75499994 -1.0749999 2.2250001 4210736
-0.75499994 -1.0549999 2.1950002 4210736
-0.76499993 -1.0649999 2.2150002 4210736
-0.76499993 -1.0649999 2.2250001 4210736
-0.76499993 -1.0549999 2.2250001 4214848
-0.74499995 -1.0549999 2.155 5263440
-0.73499995 -1.0649999 2.1849999 4210736
-0.72499996 -1.0549999 2.155 5263440
-0.72499996 -1.0549999 2.1849999 5259312
-0.71499991 -1.0549999 2.175 5263440
-0.71499991 -1.0549999 2.1849999 4210736
-0.73499995 -1.0749999 2.2050002 5263424
-0.74499995 -1.0549999 2.2050002 4210736
-0.73499995 -1.0649999 2.2050002 4210736
-0.74499995 -1.0549999 2.2250001 5263440
-0.73499995 -1.0649999 2.2150002 5263408
-0.72499996 -1.0549999 2.2050002 5263408
-0.78499997 -1.045 2.075 3158064
-0.78499997 -1.035 2.085 5263440
-0.75499994 -1.025 2.085 1052688
-0.75499994 -1.045 2.125 2105376
-0.75499994 -1.035 2.135 5263440
-0.75499994 -1.025 2.115 1052672
-0.75499994 -0.99499995 2.105 4096
-0.76499993 -0.97499996 2.105 1052672
-0.74499995 -1.035 2.085 5263440
-0.73499995 -1.035 2.075 5263440
-0.74499995 -1.045 2.095 6316128
-0.74499995 -1.035 2.105 5263440
-0.73499995 -1.045 2.095 5263440
-0.73499995 -1.035 2.095 5263440
-0.73499995 -1.025 2.105 5263424
-0.72499996 -1.045 2.095 5263440
-0.72499996 -1.045 2.105 5263440
-0.72499996 -1.035 2.095 5263440
-0.71499991 -1.045 2.105 3162160
-0.71499991 -1.035 2.105 5263440
-0.74499995 -1.045 2.125 5263440
-0.73499995 -1.035 2.125 4214848
-0.72499996 -1.045 2.115 5263440
-0.72499996 -1.045 2.125 5263440
-0.71499991 -1.045 2.125 5263440
-0.72499996 -1.045 2.135 5263424
-0.72499996 -1.025 2.115 4210752
-0.74499995 -0.99499995 2.095 1052672
-0.76499993 -1.045 2.155 5263440
-0.77499992 -1.045 2.1950002 4210752
-0.78499997 -1.045 2.2150002 5263440
-0.78499997 -1.035 2.2150002 3158064
-0.77499992 -1.045 2.2250001 5267552
-0.74499995 -1.045 2.1849999 4214848
-0.73499995 -1.045 2.1849999 4210736
-0.72499996 -1.045 2.155 4210736
-0.72499996 -1.035 2.155 4210736
-0.72499996 -1.035 2.165 4210736
-0.72499996 -1.045 2.1849999 4210736
-0.74499995 -1.045 2.1950002 5263424
-0.73499995 -1.045 2.2050002 5263440
-0.72499996 -1.045 2.1950002 4210752
-0.72499996 -1.045 2.2150002 5263440
-0.65499991 -1.0649999 2.105 7368800
-0.65499991 -1.0549999 2.095 7368816
-0.65499991 -1.0549999 2.105 7368800
-0.63499993 -1.0549999 2.085 8421488
-0.64499992 -1.0549999 2.095 7368800
-0.64499992 -1.0549999 2.105 7368800
-0.63499993 -1.0549999 2.095 7368816
-0.63499993 -1.0549999 2.105 7368816
-0.63499993 -1.0549999 2.125 6316128
-0.64499992 -1.0649999 2.135 6320224
-0.63499993 -1.0549999 2.135 6316128
-0.63499993 -1.0549999 2.145 6316128
-0.68499994 -1.0749999 2.2250001 6316096
-0.68499994 -1.0649999 2.2150002 5267520
-0.67499995 -1.0649999 2.2250001 5267520
-0.66499996 -1.0549999 2.155 6316128
-0.66499996 -1.0549999 2.1849999 6316112
-0.65499991 -1.0549999 2.175 6316096
-0.64499992 -1.0549999 2.155 6316128
-0.64499992 -1.0549999 2.165 6316128
-0.64499992 -1.0649999 2.1849999 6316128
-0.64499992 -1.0549999 2.175 6316112
-0.64499992 -1.0549999 2.1849999 6316112
-0.63499993 -1.0649999 2.175 6316128
-0.63499993 -1.0549999 2.175 6316112
-0.63499993 -1.0549999 2.1849999 6316112
-0.66499996 -1.0649999 2.2050002 6316096
-0.66499996 -1.0549999 2.2050002 5263424
-0.66499996 -1.0649999 2.2250001 5263424
-0.66499996 -1.0549999 2.2150002 5263424
-0.65499991 -1.0649999 2.2250001 5267520
-0.65499991 -1.0549999 2.2150002 5263440
-0.64499992 -1.0649999 2.2050002 6316096
-0.63499993 -1.0549999 2.1950002 5263424
-0.64499992 -1.0549999 2.2150002 5263424
-0.63499993 -1.0549999 2.2150002 5263440
-0.69499993 -1.045 2.075 6316128
-0.69499993 -1.045 2.085 6316128
-0.70499992 -1.045 2.105 5267552
-0.69499993 -1.045 2.105 6316128
-0.70499992 -1.025 2.085 5263440
-0.68499994 -1.035 2.085 5267536
-0.70499992 -1.045 2.115 5267536
-0.70499992 -1.045 2.125 5263440
-0.68499994 -0.99499995 2.095 1052672
-0.65499991 -1.045 2.075 1052672
-0.66499996 -1.045 2.105 1052672
-0.65499991 -1.045 2.105 6316128
-0.65499991 -1.015 2.085 1052688
-0.65499991 -1.015 2.095 1052688
-0.64499992 -1.045 2.085 7368800
-0.63499993 -1.045 2.075 7368800
-0.63499993 -1.045 2.085 7368800
-0.64499992 -1.045 2.095 6316128
-0.64499992 -1.035 2.095 6316128
-0.63499993 -1.045 2.095 7368800
-0.64499992 -1.025 2.075 6316128
-0.64499992 -1.025 2.085 7368800
-0.64499992 -1.015 2.075 6316128
-0.65499991 -1.035 2.115 6316128
-0.65499991 -1.045 2.145 6316128
-0.64499992 -1.045 2.115 6316128
-0.64499992 -1.045 2.125 6316128
-0.64499992 -1.035 2.115 6316128
-0.64499992 -1.045 2.135 6316128
-0.64499992 -1.045 2.145 6316128
-0.64499992 -1.035 2.135 6316128
-0.63499993 -1.045 2.145 6316128
-0.65499991 -0.99499995 2.105 1052688
-0.66499996 -1.045 2.155 0
-0.92499995 -1.135 2.4450002 5263456
-0.92499995 -1.0949999 2.2550001 5263424
-0.91499996 -1.0749999 2.2350001 5263408
-0.92499995 -1.0749999 2.2550001 5263440
-0.91499996 -1.0749999 2.2550001 5263424
-0.92499995 -1.0649999 2.2450001 5263440
-0.91499996 -1.0649999 2.2350001 5263424
-0.92499995 -1.0649999 2.2650001 5263456
-0.94499993 -1.0749999 2.3050001 5263456
-0.93499994 -1.0749999 2.2950001 5263456
-0.92499995 -1.0749999 2.2750001 5263440
-0.91499996 -1.0849999 2.2850001 5263440
-0.91499996 -1.0849999 2.2950001 5263440
-0.89499992 -1.0949999 2.2750001 5263424
-0.88499993 -1.0949999 2.2950001 4210752
-0.90499991 -1.0749999 2.2350001 5263408
-0.90499991 -1.0849999 2.2550001 5263424
-0.90499991 -1.0749999 2.2550001 5263424
-0.90499991 -1.0649999 2.2450001 5263456
-0.89499992 -1.0549999 2.2350001 5263456
-0.90499991 -1.0649999 2.2650001 5263456
-0.88499993 -1.0749999 2.2350001 5263424
-0.87499994 -1.0849999 2.2450001 5263424
-0.88499993 -1.0849999 2.2550001 4214832
-0.88499993 -1.0549999 2.2450001 3158064
-0.87499994 -1.0649999 2.2350001 4210752
-0.87499994 -1.0549999 2.2350001 5263440
-0.89499992 -1.0749999 2.2950001 5263440
-0.89499992 -1.0749999 2.3050001 4214880
-0.90499991 -1.0549999 2.2850001 4210784
-0.89499992 -1.0649999 2.2750001 5263456
-0.92499995 -1.1049999 2.325 5263424
-0.94499993 -1.0749999 2.3150001 5263456
-0.94499993 -1.0849999 2.335 5263456
-0.92499995 -1.0549999 2.345 3162192
-0.91499996 -1.0549999 2.335 3162192
-0.94499993 -1.0749999 2.355 4210768
-0.93499994 -1.0749999 2.355 3162192
-0.91499996 -1.0749999 2.355 4214880
-0.92499995 -1.0549999 2.365 3162208
-0.92499995 -1.0649999 2.375 3162192
-0.88499993 -1.0949999 2.335 5263456
-0.87499994 -1.0949999 2.345 6316128
-0.90499991 -1.0849999 2.345 5263456
-0.89499992 -1.0849999 2.335 2105392
-0.90499991 -1.0649999 2.325 4214880
-0.89499992 -1.0649999 2.345 4214880
-0.87499994 -1.0849999 2.325 5267552
-0.90499991 -1.0849999 2.375 4214880
-0.84499997 -1.0649999 2.2550001 3158064
-0.84499997 -1.0649999 2.2650001 6316144
-0.85499996 -1.0649999 2.2750001 6316128
-0.79499996 -1.0749999 2.2550001 4210736
-0.79499996 -1.0549999 2.2650001 6316128
-0.81499994 -1.0549999 2.2850001 1052672
-0.80499995 -1.0749999 2.2850001 5263440
-0.79499996 -1.0749999 2.2850001 5267552
-0.79499996 -1.0649999 2.2850001 5267552
-0.79499996 -1.0649999 2.3050001 5267568
-0.83499992 -1.0849999 2.385 5263456
-0.83499992 -1.0749999 2.375 1052704
-0.79499996 -1.0949999 2.345 5267568
-0.81499994 -1.0749999 2.325 5267552
-0.82499993 -1.0849999 2.335 6316128
-0.81499994 -1.0649999 2.3150001 5267552
-0.82499993 -1.0649999 2.335 1052688
-0.82499993 -1.0649999 2.345 3158064
-0.79499996 -1.0749999 2.325 5267552
-0.80499995 -1.0649999 2.335 5263456
-0.79499996 -1.0649999 2.335 5263456
-0.82499993 -1.0849999 2.355 5263456
-0.82499993 -1.0749999 2.365 5263456
-0.81499994 -1.0749999 2.355 5263456
-0.82499993 -1.0849999 2.385 5263456
-0.81499994 -1.0649999 2.385 4214880
-0.80499995 -1.0749999 2.375 5263456
-0.94499993 -1.0949999 2.425 2105376
-0.94499993 -1.1149999 2.4550002 4214880
-0.94499993 -1.1049999 2.4650002 3162192
-0.91499996 -1.1149999 2.4450002 4214880
-0.94499993 -1.0849999 2.405 3162208
-0.92499995 -1.0849999 2.395 3162192
-0.91499996 -1.0849999 2.415 3162192
-0.92499995 -1.0749999 2.4450002 3162192
-0.90499991 -1.0949999 2.415 2105392
-0.94499993 -1.1049999 2.5050001 3162192
-0.94499993 -1.0949999 2.5250001 3158096
-0.94499993 -1.0749999 2.5050001 3158080
-0.92499995 -1.0849999 2.4750001 3162192
-0.87499994 -1.0949999 2.5050001 2105376
-0.87499994 -1.125 2.5350001 3158096
-0.88499993 -1.0949999 2.5450001 1052704
-0.87499994 -1.1049999 2.5350001 3158080
-0.87499994 -1.0849999 2.4750001 1052672
-0.88499993 -1.0849999 2.5350001 1052688
-0.83499992 -1.0949999 2.425 4214880
-0.85499996 -1.0949999 2.4450002 4210768
-0.85499996 -1.0949999 2.4650002 3162192
-0.84499997 -1.0949999 2.4349999 4210784
-0.84499997 -1.0949999 2.4650002 3162192
-0.85499996 -1.0849999 2.425 4112
-0.83499992 -1.0849999 2.395 5263456
-0.83499992 -1.0849999 2.405 4214880
-0.79499996 -1.1049999 2.405 6316144
-0.82499993 -1.0849999 2.395 5263456
-0.82499993 -1.0849999 2.405 5263456
-0.81499994 -1.0849999 2.405 5263456
-0.82499993 -1.0849999 2.415 3162208
-0.81499994 -1.0849999 2.425 4214880
-0.81499994 -1.0749999 2.415 4210784
-0.80499995 -1.0849999 2.395 5263456
-0.80499995 -1.0749999 2.395 4214880
-0.79499996 -1.0749999 2.395 4214880
-0.80499995 -1.0749999 2.415 4214880
-0.80499995 -1.0549999 2.405 3162192
-0.79499996 -1.0649999 2.415 4210784
-0.82499993 -1.0849999 2.4349999 3162192
-0.81499994 -1.0849999 2.4450002 3162192
-0.82499993 -1.0749999 2.4650002 3162192
-0.82499993 -1.0649999 2.4450002 3162192
-0.80499995 -1.0749999 2.4550002 4214880
-0.80499995 -1.0549999 2.4349999 4214880
-0.86499995 -1.1049999 2.4850001 3158080
-0.86499995 -1.0949999 2.4850001 2109488
-0.86499995 -1.1049999 2.5050001 3158096
-0.85499996 -1.1049999 2.4950001 3162192
-0.85499996 -1.1049999 2.5050001 2109520
-0.84499997 -1.1049999 2.4850001 3162192
-0.86499995 -1.1049999 2.5150001 2109520
-0.86499995 -1.1049999 2.5250001 3158096
-0.85499996 -1.0949999 2.5450001 4210768
-0.84499997 -1.1049999 2.5150001 3162192
-0.82499993 -1.0749999 2.4750001 3162192
-0.77499992 -1.0949999 2.2750001 4210736
-0.78499997 -1.0749999 2.2550001 4210752
-0.78499997 -1.0549999 2.2350001 5263456
-0.77499992 -1.0649999 2.2450001 5263440
-0.78499997 -1.0549999 2.2550001 5267552
-0.77499992 -1.0649999 2.2550001 5263440
-0.77499992 -1.0549999 2.2550001 5267568
-0.75499994 -1.0749999 2.2350001 4210736
-0.75499994 -1.0549999 2.2350001 5263440
-0.76499993 -1.0549999 2.2550001 5267552
-0.75499994 -1.0649999 2.2550001 5267552
-0.78499997 -1.0749999 2.3050001 6316144
-0.78499997 -1.0649999 2.2750001 5267552
-0.77499992 -1.0549999 2.2750001 6316144
-0.77499992 -1.0549999 2.2850001 5267552
-0.77499992 -1.0649999 2.3050001 6316144
-0.77499992 -1.0549999 2.3050001 5267552
-0.76499993 -1.0749999 2.2950001 6316144
-0.75499994 -1.0749999 2.2950001 6316144
-0.76499993 -1.0649999 2.2750001 5267552
-0.76499993 -1.0649999 2.2850001 6316144
-0.76499993 -1.0549999 2.2750001 6316144
-0.75499994 -1.0649999 2.2750001 6316128
-0.76499993 -1.0649999 2.2950001 6316144
-0.73499995 -1.0549999 2.2350001 5267552
-0.72499996 -1.0549999 2.2450001 5263440
-0.71499991 -1.0649999 2.3050001 1052688
-0.78499997 -1.0949999 2.325 5267552
-0.78499997 -1.0949999 2.385 6316144
-0.77499992 -1.0749999 2.345 5267552
-0.78499997 -1.0649999 2.3150001 5267552
-0.78499997 -1.0649999 2.325 2105392
-0.77499992 -1.0649999 2.325 5267552
-0.77499992 -1.0649999 2.345 5263456
-0.76499993 -1.0849999 2.335 6316144
-0.76499993 -1.0649999 2.3150001 6316144
-0.78499997 -1.0849999 2.375 5267552
-0.78499997 -1.0749999 2.385 4214880
-0.77499992 -1.0549999 2.375 4214880
-0.71499991 -1.0749999 2.345 6320240
-0.73499995 -1.0749999 2.375 1052688
-0.72499996 -1.0749999 2.355 4112
-0.72499996 -1.0749999 2.365 5263440
-0.71499991 -1.0749999 2.355 5267552
-0.71499991 -1.0749999 2.365 5267552
-0.71499991 -1.0849999 2.385 5263456
-0.72499996 -1.0649999 2.355 4096
-0.72499996 -1.0649999 2.375 4210752
-0.72499996 -1.0649999 2.385 4210768
-0.71499991 -1.0649999 2.385 4210768
-0.78499997 -1.045 2.2450001 5267552
-0.77499992 -1.045 2.385 4214880
-0.69499993 -1.0949999 2.2550001 5267536
-0.69499993 -1.0549999 2.2350001 1052688
-0.69499993 -1.0649999 2.2650001 5267536
-0.69499993 -1.0549999 2.2550001 6316112
-0.68499994 -1.0649999 2.2350001 5267536
-0.68499994 -1.0549999 2.2450001 6316128
-0.67499995 -1.0649999 2.2350001 5263424
-0.68499994 -1.0649999 2.2550001 6316128
-0.69499993 -1.0749999 2.2950001 6316128
-0.69499993 -1.0749999 2.3050001 6316144
-0.69499993 -1.0649999 2.2750001 2109472
-0.70499992 -1.0649999 2.2950001 2105376
-0.69499993 -1.0649999 2.2950001 6316128
-0.69499993 -1.0549999 2.3050001 5267552
-0.68499994 -1.0749999 2.2750001 6316128
-0.68499994 -1.0749999 2.2850001 6316128
-0.67499995 -1.0749999 2.2850001 5267552
-0.68499994 -1.0749999 2.2950001 6316144
-0.67499995 -1.0849999 2.3050001 6316128
-0.67499995 -1.0649999 2.2850001 6316144
-0.68499994 -1.0549999 2.3050001 5267568
-0.65499991 -1.0749999 2.2650001 6316128
-0.66499996 -1.0649999 2.2350001 5263424
-0.66499996 -1.0649999 2.2450001 5267536
-0.65499991 -1.0649999 2.2450001 6316112
-0.65499991 -1.0649999 2.2550001 6316128
-0.63499993 -1.0749999 2.2450001 5263424
-0.64499992 -1.0649999 2.2350001 5263440
-0.64499992 -1.0549999 2.2450001 5263440
-0.63499993 -1.0649999 2.2350001 5263440
-0.63499993 -1.0549999 2.2350001 6316128
-0.63499993 -1.0649999 2.2550001 5263440
-0.66499996 -1.0749999 2.2750001 6316128
-0.65499991 -1.0749999 2.2850001 5267552
-0.66499996 -1.0749999 2.3050001 6316128
-0.65499991 -1.0749999 2.2950001 5267552
-0.65499991 -1.0649999 2.2950001 2109488
-0.63499993 -1.0849999 2.2750001 5263424
-0.63499993 -1.0749999 2.2850001 5263440
-0.63499993 -1.0749999 2.2950001 5263440
-0.63499993 -1.0649999 2.2750001 5263440
-0.70499992 -1.0749999 2.3150001 6316128
-0.70499992 -1.0749999 2.325 6316128
-0.69499993 -1.0749999 2.3150001 6316144
-0.70499992 -1.0749999 2.335 6316144
-0.69499993 -1.0649999 2.3150001 6316144
-0.70499992 -1.0649999 2.345 5263456
-0.69499993 -1.0649999 2.335 5267568
-0.68499994 -1.0849999 2.3150001 6316128
-0.68499994 -1.0749999 2.325 6316144
-0.67499995 -1.0849999 2.3150001 6316128
-0.67499995 -1.0849999 2.325 6316144
-0.67499995 -1.0749999 2.325 6316144
-0.68499994 -1.0849999 2.335 6316144
-0.67499995 -1.0849999 2.335 6316128
-0.67499995 -1.0749999 2.335 6316144
-0.67499995 -1.0749999 2.345 5267568
-0.68499994 -1.0649999 2.3150001 5267568
-0.68499994 -1.0649999 2.345 5267568
-0.67499995 -1.0649999 2.335 5267568
-0.69499993 -1.0749999 2.365 5263456
-0.70499992 -1.0749999 2.375 5263456
-0.69499993 -1.0549999 2.355 4214880
-0.68499994 -1.0749999 2.355 5267568
-0.67499995 -1.0749999 2.355 5267568
-0.68499994 -1.0849999 2.385 5267568
-0.68499994 -1.0749999 2.375 5263456
-0.67499995 -1.0649999 2.355 5263456
-0.65499991 -1.0949999 2.345 5267552
-0.66499996 -1.0949999 2.365 5263440
-0.65499991 -1.0949999 2.365 5263440
-0.63499993 -1.0949999 2.355 5263440
-0.65499991 -1.0749999 2.3150001 5267552
-0.66499996 -1.0749999 2.335 6316144
-0.65499991 -1.0849999 2.345 5263440
-0.65499991 -1.0749999 2.335 5267552
-0.66499996 -1.0649999 2.345 5267552
-0.64499992 -1.0849999 2.3150001 5263440
-0.63499993 -1.0749999 2.3150001 5263440
-0.64499992 -1.0749999 2.335 5263440
-0.63499993 -1.0849999 2.345 5263440
-0.66499996 -1.0849999 2.365 5267552
-0.65499991 -1.0749999 2.355 5263440
-0.66499996 -1.0849999 2.375 5263456
-0.66499996 -1.0849999 2.385 4214864
-0.66499996 -1.0649999 2.355 5263456
-0.64499992 -1.0849999 2.355 5263440
-0.64499992 -1.0849999 2.365 4210752
-0.63499993 -1.0849999 2.355 5263440
-0.63499993 -1.0849999 2.365 5263440
-0.64499992 -1.0849999 2.385 4210752
-0.64499992 -1.0749999 2.385 4210736
-0.63499993 -1.0849999 2.375 5263440
-0.63499993 -1.0749999 2.375 4210752
-0.64499992 -1.0549999 2.365 1056784
-0.64499992 -1.0649999 2.375 1056784
-0.64499992 -1.0649999 2.385 1052688
-0.63499993 -1.0649999 2.375 3158064
-0.64499992 -1.045 2.355 1052688
-0.64499992 -1.035 2.355 4096
-0.63499993 -1.035 2.355 4096
-0.78499997 -1.0649999 2.395 4214880
-0.73499995 -1.0949999 2.4450002 5263456
-0.71499991 -1.0949999 2.4650002 4210768
-0.73499995 -1.0749999 2.405 3158064
-0.72499996 -1.0749999 2.395 5263440
-0.71499991 -1.0849999 2.405 4214880
-0.73499995 -1.0849999 2.4349999 4210768
-0.73499995 -1.0749999 2.4349999 4210768
-0.71499991 -1.0749999 2.4349999 4210768
-0.75499994 -1.1049999 2.5050001 4214880
-0.75499994 -1.0949999 2.4950001 5263440
-0.75499994 -1.0949999 2.5050001 5263456
-0.75499994 -1.0949999 2.5450001 5263456
-0.75499994 -1.0849999 2.4950001 5267552
-0.75499994 -1.0749999 2.5050001 5263456
-0.76499993 -1.0849999 2.5250001 1052688
-0.76499993 -1.0749999 2.5250001 1052688
-0.74499995 -1.0949999 2.5050001 4214880
-0.73499995 -1.0949999 2.5050001 4214880
-0.72499996 -1.1149999 2.4950001 4214880
-0.72499996 -1.0949999 2.4850001 4210784
-0.71499991 -1.0949999 2.4850001 4210768
-0.71499991 -1.1049999 2.5050001 4214880
-0.74499995 -1.0949999 2.5150001 5263456
-0.74499995 -1.0949999 2.5250001 5263456
-0.73499995 -1.1049999 2.5250001 4214880
-0.74499995 -1.0949999 2.5450001 5263456
-0.73499995 -1.1049999 2.5350001 4214880
-0.72499996 -1.1149999 2.5450001 4214880
-0.72499996 -1.1049999 2.5150001 4210784
-0.72499996 -1.1049999 2.5250001 4214880
-0.71499991 -1.1049999 2.5250001 4214880
-0.71499991 -1.1049999 2.5450001 5263456
-0.71499991 -1.0949999 2.5350001 5263456
-0.74499995 -1.0849999 2.4950001 5263456
-0.71499991 -1.0849999 2.5050001 5263456
-0.71499991 -1.0649999 2.4950001 5263456
-0.73499995 -1.0849999 2.5350001 5263456
-0.73499995 -1.0849999 2.5450001 5267568
-0.72499996 -1.0849999 2.5150001 4214880
-0.72499996 -1.0849999 2.5450001 5263456
-0.71499991 -1.0749999 2.5350001 5263456
-0.70499992 -1.0949999 2.405 5263456
-0.70499992 -1.0949999 2.4450002 4214880
-0.69499993 -1.0949999 2.4650002 4214880
-0.69499993 -1.0849999 2.405 4214880
-0.69499993 -1.0749999 2.425 4210768
-0.68499994 -1.0749999 2.395 4214880
-0.68499994 -1.0749999 2.405 4214864
-0.67499995 -1.0849999 2.405 5263440
-0.67499995 -1.0749999 2.395 5263440
-0.67499995 -1.0749999 2.405 4214864
-0.68499994 -1.0749999 2.415 4214880
-0.67499995 -1.0849999 2.425 2105376
-0.67499995 -1.0749999 2.415 4210768
-0.67499995 -1.0749999 2.425 1052688
-0.70499992 -1.0849999 2.4550002 4210768
-0.69499993 -1.0549999 2.4650002 5263456
-0.65499991 -1.0949999 2.395 4210752
-0.65499991 -1.0949999 2.4650002 4214864
-0.64499992 -1.0949999 2.4450002 5263456
-0.63499993 -1.0949999 2.4349999 5263456
-0.63499993 -1.0949999 2.4450002 5263456
-0.64499992 -1.0949999 2.4550002 5263456
-0.63499993 -1.0949999 2.4550002 5263456
-0.66499996 -1.0849999 2.395 4214864
-0.66499996 -1.0849999 2.405 4210752
-0.65499991 -1.0849999 2.395 4210752
-0.65499991 -1.0749999 2.395 3158064
-0.65499991 -1.0749999 2.405 1052688
-0.66499996 -1.0649999 2.405 1052688
-0.63499993 -1.0749999 2.395 3158080
-0.64499992 -1.0849999 2.415 3158080
-0.63499993 -1.0849999 2.415 5263456
-0.63499993 -1.0649999 2.395 0
-0.65499991 -1.0849999 2.4550002 4096
-0.65499991 -1.0849999 2.4650002 4210768
-0.64499992 -1.0749999 2.4349999 5263440
-0.63499993 -1.0849999 2.4550002 5263456
-0.63499993 -1.0849999 2.4650002 4214880
-0.69499993 -1.0949999 2.4850001 4214864
-0.70499992 -1.1049999 2.5250001 5263456
-0.67499995 -1.0949999 2.5450001 6316128
-0.70499992 -1.0849999 2.5150001 5267552
-0.67499995 -1.0749999 2.5350001 0
-0.64499992 -1.0949999 2.4850001 4214880
-0.63499993 -1.0949999 2.4750001 4214880
-0.66499996 -1.0949999 2.5150001 5263440
-0.65499991 -1.1049999 2.5250001 5263456
-0.66499996 -1.1049999 2.5450001 5263456
-0.66499996 -1.0949999 2.5450001 5267552
-0.63499993 -1.0949999 2.5250001 4214880
-0.64499992 -1.1049999 2.5350001 4214880
-0.64499992 -1.0949999 2.5350001 5263456
-0.63499993 -1.1049999 2.5350001 4214880
-0.63499993 -1.0949999 2.5450001 5263456
-0.64499992 -1.0849999 2.4950001 4214880
-0.63499993 -1.0849999 2.4950001 4214880
-0.66499996 -1.0849999 2.5350001 6316128
-0.65499991 -0.97499996 2.405 1052672
-0.72499996 -0.96499991 1.975 1052672
-0.72499996 -0.94499993 1.985 1052672
-0.72499996 -0.92499995 1.975 1052672
-0.73499995 -0.96499991 2.0150001 1052672
-0.73499995 -0.94499993 2.0150001 1052672
-0.72499996 -0.96499991 2.0050001 1052672
-0.71499991 -0.95499992 1.995 1052688
-0.72499996 -0.95499992 2.0150001 1052688
-0.72499996 -0.94499993 1.995 1052672
-0.72499996 -0.94499993 2.0050001 1052672
-0.73499995 -0.95499992 2.0350001 1052688
-0.74499995 -0.96499991 2.0550001 1052672
-0.74499995 -0.94499993 2.0650001 1052672
-0.73499995 -0.94499993 2.0550001 1052688
-0.74499995 -0.91499996 2.0250001 1052688
-0.73499995 -0.91499996 2.0250001 1052688
-0.71499991 -0.90499991 1.995 1052688
-0.72499996 -0.90499991 2.0150001 1052688
-0.72499996 -0.89499992 2.0250001 1052688
-0.74499995 -0.92499995 2.0550001 1052688
-0.74499995 -0.92499995 2.0650001 1052688
-0.74499995 -0.91499996 2.0650001 1052688
-0.73499995 -0.91499996 2.0550001 1052672
-0.73499995 -0.91499996 2.0650001 1052688
-0.74499995 -0.90499991 2.0450001 1052688
-0.72499996 -0.89499992 2.0350001 1052688
-0.71499991 -0.82499993 1.985 1052688
-0.73499995 -0.88499993 2.0250001 1052688
-0.72499996 -0.88499993 2.0250001 1052688
-0.72499996 -0.86499995 2.0250001 1052688
-0.73499995 -0.88499993 2.0450001 1052688
-0.73499995 -0.87499994 2.0350001 1052688
-0.73499995 -0.87499994 2.0650001 1052688
-0.74499995 -0.86499995 2.0450001 1052688
-0.74499995 -0.86499995 2.0550001 1052688
-0.73499995 -0.86499995 2.0550001 1052688
-0.73499995 -0.86499995 2.0650001 1052688
-0.73499995 -0.85499996 2.0550001 1052688
-0.72499996 -0.88499993 2.0450001 1052688
-0.72499996 -0.87499994 2.0350001 1052688
-0.72499996 -0.86499995 2.0350001 1052688
-0.72499996 -0.86499995 2.0450001 1052688
-0.72499996 -0.85499996 2.0550001 1052688
-0.73499995 -0.83499992 2.0250001 1052688
-0.73499995 -0.82499993 2.0250001 1052688
-0.72499996 -0.84499997 2.0250001 1052688
-0.72499996 -0.82499993 2.0050001 1052688
-0.73499995 -0.83499992 2.0350001 1052688
-0.74499995 -0.84499997 2.0650001 1052688
-0.73499995 -0.84499997 2.0650001 1052688
-0.73499995 -0.82499993 2.0650001 1052688
-0.73499995 -0.81499994 2.0550001 1052688
-0.73499995 -0.81499994 2.0650001 1052688
-0.72499996 -0.84499997 2.0350001 1052688
-0.72499996 -0.84499997 2.0450001 1052688
-0.72499996 -0.83499992 2.0350001 1052688
-0.72499996 -0.83499992 2.0450001 1052688
-0.72499996 -0.84499997 2.0550001 1052688
-0.72499996 -0.81499994 2.0450001 1052688
-0.70499992 -0.91499996 1.9350001 1052672
-0.63499993 -0.95499992 1.985 1052688
-0.63499993 -0.93499994 1.975 1052672
-0.65499991 -0.96499991 2.0250001 1056784
-0.63499993 -0.95499992 1.995 1052688
-0.63499993 -0.95499992 2.0050001 1052688
-0.64499992 -0.95499992 2.0150001 1056784
-0.63499993 -0.96499991 2.0150001 1052672
-0.63499993 -0.95499992 2.0250001 1056784
-0.63499993 -0.94499993 1.995 1052688
-0.64499992 -0.93499994 2.0150001 1052688
-0.63499993 -0.94499993 2.0150001 1052688
-0.63499993 -0.94499993 2.0250001 1052688
-0.63499993 -0.93499994 2.0150001 1056784
-0.65499991 -0.96499991 2.0550001 1052688
-0.64499992 -0.96499991 2.0550001 1052688
-0.64499992 -0.96499991 2.0650001 1052688
-0.63499993 -0.94499993 2.0350001 1052688
-0.63499993 -0.93499994 2.0350001 1056784
-0.64499992 -0.94499993 2.0650001 1052688
-0.63499993 -0.92499995 2.0050001 1052688
-0.63499993 -0.92499995 2.0250001 1052688
-0.63499993 -0.90499991 1.995 1052688
-0.65499991 -0.91499996 2.0450001 1052688
-0.65499991 -0.92499995 2.0650001 1052688
-0.65499991 -0.90499991 2.0550001 1052688
-0.64499992 -0.92499995 2.0350001 1052688
-0.64499992 -0.92499995 2.0550001 0
-0.64499992 -0.89499992 2.0350001 1052688
-0.64499992 -0.90499991 2.0650001 1052672
-0.63499993 -0.88499993 2.0050001 1052688
-0.64499992 -0.88499993 2.0150001 1052688
-0.63499993 -0.88499993 2.0150001 1052688
-0.63499993 -0.87499994 2.0150001 1052688
-0.63499993 -0.85499996 1.995 1052688
-0.63499993 -0.86499995 2.0250001 0
-0.63499993 -0.88499993 2.0350001 1052688
-0.63499993 -0.87499994 2.0450001 1052688
-0.64499992 -0.88499993 2.0550001 1052688
-0.64499992 -0.88499993 2.0650001 1052688
-0.63499993 -0.87499994 2.0550001 1052688
-0.64499992 -0.86499995 2.0350001 1052688
-0.64499992 -0.86499995 2.0450001 1052688
-0.64499992 -0.85499996 2.0450001 1052688
-0.63499993 -0.86499995 2.0350001 1052688
-0.64499992 -0.86499995 2.0650001 1052688
-0.64499992 -0.85499996 2.0550001 1052688
-0.64499992 -0.85499996 2.0650001 1052688
-0.63499993 -0.86499995 2.0550001 1052688
-0.63499993 -0.86499995 2.0650001 1052688
-0.63499993 -0.84499997 1.995 1052688
-0.65499991 -0.84499997 2.0550001 0
-0.65499991 -0.84499997 2.0650001 1052688
-0.64499992 -0.84499997 2.0450001 1052672
-0.64499992 -0.83499992 2.0350001 1052688
-0.64499992 -0.83499992 2.0450001 1052688
-0.64499992 -0.84499997 2.0650001 1052688
-0.64499992 -0.83499992 2.0550001 1052688
-0.64499992 -0.83499992 2.0650001 1052688
-0.64499992 -0.82499993 2.0450001 1052688
-0.64499992 -0.81499994 2.0450001 1052688
-0.64499992 -0.82499993 2.0650001 1052688
-0.75499994 -0.96499991 2.085 1052672
-0.75499994 -0.95499992 2.105 1052688
-0.75499994 -0.94499993 2.075 1052672
-0.74499995 -0.96499991 2.075 1052688
-0.74499995 -0.95499992 2.075 1052688
-0.75499994 -0.87499994 2.075 1052688
-0.75499994 -0.86499995 2.075 1052688
-0.75499994 -0.84499997 2.095 1052688
-0.75499994 -0.82499993 2.105 1052688
-0.76499993 -0.81499994 2.125 1052688
-0.73499995 -0.87499994 2.075 1052688
-0.73499995 -0.83499992 2.075 1052688
-0.66499996 -0.93499994 2.095 1052688
-0.65499991 -0.92499995 2.085 1052688
-0.65499991 -0.90499991 2.105 1052688
-0.64499992 -0.90499991 2.085 1052688
-0.64499992 -0.85499996 2.075 1052688
-0.65499991 -0.81499994 2.075 1052688
-0.66499996 -0.81499994 2.105 1052672
-0.65499991 -0.82499993 2.095 1052688
-0.64499992 -0.84499997 2.075 1052688
-0.64499992 -0.83499992 2.075 1052688
-0.64499992 -0.83499992 2.085 1052688
-0.64499992 -0.83499992 2.095 1052688
-0.64499992 -0.82499993 2.075 1052688
-0.64499992 -0.82499993 2.085 1052688
-0.64499992 -0.81499994 2.085 1052688
-0.63499993 -0.81499994 2.075 1052688
-0.66499996 -0.81499994 2.115 1052672
-0.69499993 -0.85499996 2.1950002 1052672
-0.72499996 -0.80499995 2.0150001 1052688
-0.71499991 -0.78499997 2.0250001 1052688
-0.73499995 -0.79499996 2.0650001 1052688
-0.73499995 -0.78499997 2.0650001 1052688
-0.72499996 -0.79499996 2.0350001 1052672
-0.72499996 -0.79499996 2.0450001 1052688
-0.72499996 -0.80499995 2.0550001 1052688
-0.72499996 -0.80499995 2.0650001 1052688
-0.72499996 -0.79499996 2.0650001 1052688
-0.72499996 -0.72499996 2.0550001 1052688
-0.72499996 -0.70499992 2.0450001 1052688
-0.70499992 -0.76499993 2.0350001 2105360
-0.65499991 -0.77499992 2.0650001 1052672
-0.64499992 -0.80499995 2.0450001 1052672
-0.64499992 -0.80499995 2.0550001 1052688
-0.64499992 -0.79499996 2.0550001 1052672
-0.63499993 -0.80499995 2.0550001 1052688
-0.63499993 -0.79499996 2.0650001 1052688
-0.64499992 -0.77499992 2.0450001 1052672
-0.75499994 -0.79499996 2.095 1052672
-0.75499994 -0.78499997 2.095 1052672
-0.77499992 -0.80499995 2.135 1052672
-0.75499994 -0.79499996 2.135 1052672
-0.75499994 -0.73499995 2.105 1052688
-0.76499993 -0.76499993 2.125 1052688
-0.75499994 -0.76499993 2.125 1052688
-0.76499993 -0.74499995 2.145 1052688
-0.73499995 -0.79499996 2.075 1052688
-0.73499995 -0.79499996 2.085 1052672
-0.74499995 -0.79499996 2.105 1052688
-0.74499995 -0.78499997 2.085 1052688
-0.73499995 -0.78499997 2.075 1052688
-0.74499995 -0.78499997 2.105 1052672
-0.74499995 -0.77499992 2.105 1052672
-0.73499995 -0.78499997 2.095 1052672
-0.73499995 -0.77499992 2.095 1052688
-0.73499995 -0.77499992 2.105 1052672
-0.72499996 -0.80499995 2.085 1052688
-0.72499996 -0.79499996 2.075 1052688
-0.72499996 -0.78499997 2.075 1052672
-0.74499995 -0.79499996 2.115 1052688
-0.73499995 -0.77499992 2.125 1052672
-0.74499995 -0.76499993 2.085 1052688
-0.73499995 -0.76499993 2.085 1052688
-0.73499995 -0.75499994 2.085 1052688
-0.74499995 -0.76499993 2.105 1052688
-0.73499995 -0.76499993 2.095 1052688
-0.73499995 -0.75499994 2.095 1052688
-0.73499995 -0.75499994 2.105 1052672
-0.73499995 -0.74499995 2.085 1052688
-0.74499995 -0.73499995 2.105 1052688
-0.73499995 -0.74499995 2.095 1052688
-0.73499995 -0.74499995 2.105 1052672
-0.73499995 -0.73499995 2.105 1052688
-0.72499996 -0.74499995 2.095 1052672
-0.73499995 -0.76499993 2.115 1052672
-0.74499995 -0.74499995 2.115 1052688
-0.73499995 -0.73499995 2.115 1052688
-0.76499993 -0.76499993 2.155 1052688
-0.76499993 -0.75499994 2.155 1052688
-0.73499995 -0.72499996 2.085 1052672
-0.74499995 -0.71499991 2.095 1052688
-0.74499995 -0.71499991 2.105 1052688
-0.73499995 -0.72499996 2.105 1052672
-0.73499995 -0.71499991 2.095 1052688
-0.73499995 -0.70499992 2.075 1052688
-0.73499995 -0.69499993 2.085 1052688
-0.74499995 -0.70499992 2.105 1052688
-0.73499995 -0.70499992 2.095 1052688
-0.73499995 -0.70499992 2.105 1052688
-0.73499995 -0.69499993 2.105 1052688
-0.72499996 -0.71499991 2.085 1052672
-0.72499996 -0.71499991 2.095 1052688
-0.72499996 -0.70499992 2.095 1052688
-0.74499995 -0.69499993 2.115 1052688
-0.74499995 -0.68499994 2.105 1052688
-0.73499995 -0.68499994 2.095 1052688
-0.73499995 -0.68499994 2.105 1052688
-0.73499995 -0.67499995 2.105 1052688
-0.73499995 -0.65499991 2.085 1052688
-0.73499995 -0.66499996 2.095 1052688
-0.72499996 -0.67499995 2.085 1052688
-0.72499996 -0.68499994 2.095 1052688
-0.72499996 -0.68499994 2.105 1052672
-0.72499996 -0.67499995 2.105 1052672
-0.72499996 -0.66499996 2.075 1052688
-0.72499996 -0.65499991 2.105 1052672
-0.74499995 -0.67499995 2.125 1052688
-0.73499995 -0.67499995 2.125 1052688
-0.73499995 -0.66499996 2.115 1052688
-0.73499995 -0.66499996 2.125 1052672
-0.73499995 -0.65499991 2.115 1052688
-0.73499995 -0.66499996 2.135 1052672
-0.72499996 -0.68499994 2.115 1052672
-0.72499996 -0.67499995 2.115 1052672
-0.77499992 -0.65499991 2.1950002 1052672
-0.67499995 -0.73499995 2.145 1052672
-0.65499991 -0.80499995 2.085 1052672
-0.65499991 -0.79499996 2.085 1052688
-0.65499991 -0.79499996 2.105 1052688
-0.65499991 -0.78499997 2.085 1052672
-0.65499991 -0.78499997 2.105 1052688
-0.65499991 -0.77499992 2.095 1052672
-0.64499992 -0.80499995 2.085 1052688
-0.64499992 -0.79499996 2.075 1052688
-0.64499992 -0.79499996 2.085 1052688
-0.63499993 -0.80499995 2.075 1052688
-0.64499992 -0.80499995 2.095 1052688
-0.64499992 -0.79499996 2.095 1052688
-0.64499992 -0.79499996 2.105 1052688
-0.64499992 -0.78499997 2.095 1052688
-0.64499992 -0.78499997 2.105 1052688
-0.64499992 -0.77499992 2.095 1052688
-0.64499992 -0.77499992 2.105 1052688
-0.66499996 -0.79499996 2.125 1052672
-0.65499991 -0.80499995 2.145 1052688
-0.66499996 -0.77499992 2.125 1052672
-0.66499996 -0.77499992 2.135 1052672
-0.66499996 -0.77499992 2.145 1052688
-0.64499992 -0.79499996 2.115 1052688
-0.64499992 -0.78499997 2.125 1052672
-0.64499992 -0.77499992 2.125 1052672
-0.65499991 -0.76499993 2.095 1052688
-0.65499991 -0.76499993 2.105 1052688
-0.64499992 -0.76499993 2.105 1052688
-0.64499992 -0.73499995 2.105 1052688
-0.66499996 -0.76499993 2.115 1052672
-0.66499996 -0.75499994 2.125 1052672
-0.65499991 -0.76499993 2.115 1052688
-0.65499991 -0.75499994 2.125 1052688
-0.66499996 -0.75499994 2.135 1052688
-0.65499991 -0.74499995 2.125 1052688
-0.65499991 -0.73499995 2.115 1052672
-0.64499992 -0.76499993 2.115 1052688
-0.64499992 -0.76499993 2.125 1052688
-0.64499992 -0.75499994 2.115 1052688
-0.64499992 -0.75499994 2.125 1052672
-0.64499992 -0.74499995 2.115 1052688
-0.64499992 -0.73499995 2.115 1052688
-0.64499992 -0.73499995 2.135 1052688
-0.67499995 -0.74499995 2.165 1052672
-0.65499991 -0.71499991 2.105 1052688
-0.64499992 -0.69499993 2.105 1052688
-0.65499991 -0.72499996 2.125 1052688
-0.66499996 -0.72499996 2.145 1052688
-0.66499996 -0.71499991 2.135 1052688
-0.65499991 -0.72499996 2.135 1052688
-0.65499991 -0.71499991 2.135 1052688
-0.65499991 -0.70499992 2.125 1052688
-0.66499996 -0.70499992 2.145 1052672
-0.64499992 -0.72499996 2.115 1052688
-0.64499992 -0.72499996 2.125 1052688
-0.64499992 -0.71499991 2.125 1052672
-0.64499992 -0.72499996 2.135 1052672
-0.64499992 -0.70499992 2.125 1052688
-0.64499992 -0.69499993 2.115 1052688
-0.65499991 -0.68499994 2.105 1052688
-0.64499992 -0.68499994 2.105 1052688
-0.65499991 -0.68499994 2.125 1052672
-0.65499991 -0.67499995 2.125 1052688
-0.66499996 -0.68499994 2.135 1052688
-0.65499991 -0.67499995 2.135 1052688
-0.65499991 -0.67499995 2.145 1052688
-0.65499991 -0.66499996 2.115 1052688
-0.65499991 -0.65499991 2.125 1052688
-0.66499996 -0.65499991 2.135 1052688
-0.65499991 -0.66499996 2.135 0
-0.65499991 -0.65499991 2.135 1052688
-0.65499991 -0.65499991 2.145 1052688
-0.64499992 -0.68499994 2.115 1052688
-0.64499992 -0.68499994 2.125 1052688
-0.64499992 -0.68499994 2.135 1052688
-0.64499992 -0.67499995 2.145 1052688
-0.64499992 -0.66499996 2.135 1052688
-0.64499992 -0.66499996 2.145 1052688
-0.64499992 -0.65499991 2.135 1052688
-0.67499995 -0.65499991 2.1849999 1052688
-0.68499994 -0.66499996 2.1950002 4096
-0.66499996 -0.65499991 2.165 1052688
-0.65499991 -0.65499991 2.155 1052688
-0.65499991 -0.65499991 2.165 1052688
-0.64499992 -0.65499991 2.155 1052688
-0.92499995 -0.90499991 2.4650002 3158064
-0.91499996 -0.90499991 2.4650002 3158064
-0.88499993 -0.89499992 2.405 1052672
-0.90499991 -0.91499996 2.4550002 2105376
-0.90499991 -0.91499996 2.4650002 3158064
-0.89499992 -0.90499991 2.4450002 2105360
-0.89499992 -0.90499991 2.4650002 3158048
-0.94499993 -0.92499995 2.4750001 3158048
-0.94499993 -0.91499996 2.4850001 3158064
-0.93499994 -0.91499996 2.4750001 3158048
-0.94499993 -0.90499991 2.4850001 2109472
-0.93499994 -0.90499991 2.4750001 3158064
-0.93499994 -0.89499992 2.4750001 2105376
-0.93499994 -0.89499992 2.4850001 1052704
-0.93499994 -0.89499992 2.4950001 2105392
-0.92499995 -0.91499996 2.4750001 2105376
-0.92499995 -0.90499991 2.4750001 3158064
-0.92499995 -0.90499991 2.4850001 2105376
-0.91499996 -0.90499991 2.4750001 3158064
-0.91499996 -0.90499991 2.4850001 2109472
-0.91499996 -0.89499992 2.4850001 3158064
-0.90499991 -0.90499991 2.4850001 3158064
-0.83499992 -0.91499996 2.4650002 2105376
-0.79499996 -0.90499991 2.4650002 2105360
-0.85499996 -0.91499996 2.4750001 4096
-0.85499996 -0.90499991 2.4750001 1052672
-0.85499996 -0.90499991 2.4850001 1052688
-0.85499996 -0.90499991 2.5050001 1056784
-0.84499997 -0.91499996 2.4750001 2109472
-0.83499992 -0.91499996 2.4750001 3158048
-0.84499997 -0.90499991 2.4750001 3158048
-0.84499997 -0.90499991 2.4850001 2105376
-0.84499997 -0.89499992 2.4850001 2109488
-0.83499992 -0.90499991 2.4750001 3158048
-0.83499992 -0.89499992 2.4750001 2105376
-0.83499992 -0.89499992 2.4850001 3158064
-0.82499993 -0.91499996 2.4850001 3158048
-0.81499994 -0.91499996 2.4750001 3158048
-0.82499993 -0.90499991 2.4750001 3158048
-0.82499993 -0.89499992 2.4750001 2105376
-0.82499993 -0.89499992 2.4850001 5259344
-0.81499994 -0.90499991 2.4750001 3158048
-0.81499994 -0.89499992 2.4750001 2105376
-0.81499994 -0.89499992 2.4850001 6316128
-0.80499995 -0.92499995 2.4850001 4210752
-0.80499995 -0.91499996 2.4850001 3158048
-0.80499995 -0.90499991 2.4750001 3158048
-0.80499995 -0.89499992 2.4750001 4210752
-0.79499996 -0.90499991 2.4750001 3158048
-0.79499996 -0.89499992 2.4750001 2105376
-0.79499996 -0.88499993 2.4550002 7368816
-0.63499993 -0.81499994 2.3050001 1052672
-0.73499995 -0.93499994 2.5150001 3158064
-0.74499995 -0.92499995 2.4850001 2105376
-0.74499995 -0.91499996 2.4750001 1052688
-0.73499995 -0.92499995 2.4850001 3162160
-0.73499995 -0.91499996 2.4750001 2105376
-0.74499995 -0.90499991 2.4750001 1052688
-0.74499995 -0.89499992 2.4750001 1052688
-0.73499995 -0.90499991 2.4750001 2105376
-0.73499995 -0.90499991 2.4850001 2105376
-0.73499995 -0.89499992 2.4950001 5263440
-0.72499996 -0.91499996 2.4850001 2105376
-0.71499991 -0.92499995 2.4850001 3158064
-0.71499991 -0.91499996 2.4850001 2105376
-0.72499996 -0.90499991 2.4850001 2105376
-0.71499991 -0.90499991 2.4850001 2105376
-0.71499991 -0.89499992 2.4750001 2105376
-0.72499996 -0.90499991 2.5050001 5263440
-0.71499991 -0.89499992 2.4950001 5263424
-0.72499996 -0.88499993 2.4550002 5263440
-0.70499992 -0.92499995 2.4850001 4210752
-0.70499992 -0.91499996 2.4750001 2109472
-0.70499992 -0.91499996 2.4850001 2109472
-0.69499993 -0.91499996 2.4750001 2105360
-0.70499992 -0.90499991 2.4750001 2109472
-0.70499992 -0.90499991 2.4850001 2109472
-0.70499992 -0.89499992 2.4750001 2105376
-0.70499992 -0.89499992 2.4850001 4214848
-0.70499992 -0.89499992 2.4950001 4214848
-0.67499995 -0.91499996 2.4950001 1052672
-0.66499996 -0.92499995 2.4850001 0
-0.66499996 -0.91499996 2.4850001 1056784
-0.65499991 -0.91499996 2.4850001 2105376
-0.66499996 -0.92499995 2.4950001 3158064
-0.65499991 -0.92499995 2.4950001 6316112
-0.65499991 -0.92499995 2.5050001 6316112
-0.66499996 -0.90499991 2.4850001 2105360
-0.66499996 -0.89499992 2.4750001 1052672
-0.65499991 -0.90499991 2.4850001 2105376
-0.65499991 -0.89499992 2.4950001 5263440
-0.64499992 -0.91499996 2.4850001 2105376
-0.63499993 -0.92499995 2.4850001 6316128
-0.64499992 -0.92499995 2.5050001 6316128
-0.64499992 -0.91499996 2.4950001 2105376
-0.63499993 -0.91499996 2.4950001 2105376
-0.64499992 -0.90499991 2.4850001 2105376
-0.64499992 -0.89499992 2.4950001 5263440
-0.63499993 -0.90499991 2.4950001 2105376
-0.63499993 -0.89499992 2.4950001 5259328
-0.65499991 -0.87499994 2.405 1052672
-0.66499996 -0.88499993 2.4450002 1052672
-0.75499994 -0.68499994 2.345 0
-0.75499994 -0.67499995 2.345 1052672
-0.78499997 -0.66499996 2.385 1052672
-0.77499992 -0.66499996 2.375 1052672
-0.76499993 -0.66499996 2.375 1052672
-0.74499995 -0.68499994 2.335 1052672
-0.74499995 -0.68499994 2.345 1052672
-0.73499995 -0.68499994 2.335 1052672
-0.70499992 -0.76499993 2.2450001 1052672
-0.64499992 -0.79499996 2.335 1052672
-0.64499992 -0.78499997 2.3150001 1052672
-0.63499993 -0.78499997 2.3150001 1052672
