# .PCD v0.7 - Point Cloud Data file format
VERSION 0.7
FIELDS x y z rgba
SIZE 4 4 4 4
TYPE F F F U
COUNT 1 1 1 1
WIDTH 1287
HEIGHT 1
VIEWPOINT 0 0 0 1 0 0 0
POINTS 1287
DATA ascii
-1.4549999 1.875 4.0450001 10526880
-1.4649999 1.8850001 4.0549998 10526880
-1.4549999 1.8850001 4.0549998 10526880
-1.4649999 1.8950001 4.0450001 10526880
-1.4649999 1.9050001 4.0450001 10526880
-1.4549999 1.8950001 4.0450001 10526880
-1.4549999 1.9050001 4.0450001 10526880
-1.4349999 1.8850001 4.0450001 10526880
-1.4449999 1.8850001 4.0549998 10526880
-1.4349999 1.875 4.0549998 10526880
-1.4449999 1.9050001 4.0450001 10526880
-1.4349999 1.9050001 4.0450001 10526880
-1.4449999 1.8950001 4.0549998 10526880
-1.4349999 1.8950001 4.0549998 10526880
-1.425 1.595 4.0050001 10531008
-1.415 1.595 4.0050001 11579584
-1.425 1.605 4.0149999 10530992
-1.415 1.605 4.0149999 11579584
-1.415 1.625 4.0050001 10530992
-1.425 1.615 4.0149999 10530992
-1.425 1.625 4.0149999 10530992
-1.415 1.615 4.0149999 11579568
-1.405 1.595 4.0050001 11579584
-1.405 1.605 4.0149999 11579568
-1.395 1.595 4.0149999 11579584
-1.395 1.605 4.0149999 11579584
-1.405 1.615 4.0050001 10530992
-1.405 1.625 4.0050001 10530992
-1.395 1.615 4.0050001 10530992
-1.395 1.625 4.0050001 10530992
-1.415 1.6450001 4.0050001 10530992
-1.425 1.6650001 4.0149999 10530992
-1.415 1.6550001 4.0149999 10530992
-1.415 1.6650001 4.0149999 10530992
-1.405 1.6350001 4.0050001 10530992
-1.395 1.6350001 4.0050001 11579568
-1.405 1.6550001 4.0050001 10530992
-1.395 1.6550001 4.0050001 10530992
-1.405 1.6650001 4.0250001 10530992
-1.375 1.595 4.0050001 11579584
-1.385 1.595 4.0149999 11579584
-1.385 1.605 4.0149999 11579584
-1.375 1.605 4.0149999 11579584
-1.385 1.615 4.0050001 10530992
-1.385 1.625 4.0050001 11579568
-1.375 1.615 4.0149999 11579584
-1.375 1.625 4.0149999 11579568
-1.3649999 1.605 4.0050001 11579584
-1.3549999 1.595 3.9950001 10531008
-1.3649999 1.615 4.0050001 11579584
-1.3549999 1.625 4.0149999 11579584
-1.385 1.6350001 4.0050001 10530992
-1.375 1.6450001 4.0149999 11579568
-1.385 1.6550001 4.0050001 11579568
-1.385 1.6650001 4.0149999 10530992
-1.375 1.6550001 4.0149999 10530992
-1.375 1.6650001 4.0149999 11579568
-1.3649999 1.6350001 4.0149999 10530992
-1.3649999 1.6450001 4.0149999 10530992
-1.3549999 1.6450001 4.0149999 11579568
-1.3649999 1.6550001 4.0149999 10530992
-1.3649999 1.6650001 4.0149999 10530992
-1.3549999 1.6550001 4.0149999 10530992
-1.3549999 1.6650001 4.0149999 10530992
-1.425 1.6750001 4.0149999 10530992
-1.425 1.6850001 4.0250001 10530992
-1.415 1.6850001 4.0250001 10530992
-1.425 1.705 4.0250001 10530992
-1.415 1.6950001 4.0250001 10530992
-1.415 1.705 4.0250001 10530992
-1.395 1.6850001 4.0250001 10530992
-1.405 1.6950001 4.0250001 10530992
-1.405 1.705 4.0250001 10530992
-1.395 1.6950001 4.0250001 10530992
-1.395 1.705 4.0250001 10530992
-1.405 1.6850001 4.0349998 10530992
-1.425 1.715 4.0250001 10530992
-1.425 1.725 4.0250001 10530992
-1.415 1.715 4.0250001 10530992
-1.415 1.725 4.0250001 10530992
-1.425 1.735 4.0250001 10526896
-1.425 1.745 4.0250001 10526896
-1.415 1.735 4.0250001 10530992
-1.415 1.745 4.0250001 10526896
-1.405 1.715 4.0250001 10530992
-1.405 1.725 4.0250001 10526896
-1.395 1.715 4.0250001 11579568
-1.395 1.725 4.0250001 10530992
-1.405 1.735 4.0250001 10530992
-1.395 1.735 4.0250001 10526896
-1.375 1.6750001 4.0149999 10530992
-1.375 1.6850001 4.0149999 10530992
-1.375 1.705 4.0250001 10530992
-1.3649999 1.6750001 4.0149999 10530992
-1.3649999 1.6850001 4.0250001 10530992
-1.3549999 1.6750001 4.0149999 11579568
-1.3649999 1.6950001 4.0149999 10530992
-1.3549999 1.6950001 4.0250001 10530992
-1.3549999 1.705 4.0250001 10530992
-1.375 1.715 4.0250001 10530992
-1.375 1.725 4.0250001 10526896
-1.3649999 1.715 4.0250001 10530992
-1.3549999 1.715 4.0250001 10530992
-1.3549999 1.725 4.0250001 10530992
-1.3549999 1.735 4.0250001 10526896
-1.385 1.725 4.0349998 10530992
-1.385 1.735 4.0349998 10530992
-1.375 1.735 4.0349998 10530992
-1.375 1.745 4.0349998 10530992
-1.3649999 1.745 4.0349998 11579568
-1.3449999 1.595 4.0050001 10531008
-1.3449999 1.605 4.0050001 11579584
-1.3349999 1.595 4.0050001 10531008
-1.3349999 1.605 4.0050001 11579584
-1.3449999 1.615 4.0050001 11579584
-1.3349999 1.615 4.0050001 11579584
-1.3449999 1.625 4.0149999 11579584
-1.3249999 1.595 4.0050001 10531008
-1.3249999 1.605 4.0050001 11579584
-1.3149999 1.595 4.0050001 10531008
-1.3149999 1.605 4.0050001 11579584
-1.3249999 1.615 4.0050001 11579584
-1.3249999 1.625 4.0050001 11579584
-1.3149999 1.615 4.0050001 11579584
-1.3149999 1.625 4.0149999 11579584
-1.3449999 1.6450001 4.0149999 10531008
-1.3349999 1.6450001 4.0149999 11579584
-1.3449999 1.6550001 4.0149999 10531008
-1.3449999 1.6650001 4.0149999 10530992
-1.3349999 1.6550001 4.0149999 10530992
-1.3349999 1.6650001 4.0149999 10530992
-1.3149999 1.6350001 4.0149999 10531008
-1.3249999 1.6650001 4.0149999 10530992
-1.3149999 1.6550001 4.0149999 10531008
-1.3049999 1.595 4.0050001 11579584
-1.3049999 1.605 4.0050001 11579584
-1.295 1.595 4.0050001 10531008
-1.295 1.605 4.0050001 11579584
-1.3049999 1.615 4.0149999 11579584
-1.3049999 1.625 4.0149999 11579584
-1.295 1.615 4.0149999 11579584
-1.295 1.625 4.0149999 11579584
-1.285 1.595 4.0050001 10531008
-1.285 1.605 4.0149999 11579584
-1.275 1.595 4.0149999 10531008
-1.275 1.605 4.0149999 11579584
-1.285 1.615 4.0149999 11579584
-1.285 1.625 4.0149999 11579584
-1.275 1.615 4.0149999 11579584
-1.275 1.625 4.0149999 11579584
-1.3049999 1.6350001 4.0050001 10531008
-1.295 1.6350001 4.0050001 11579584
-1.3049999 1.6550001 4.0149999 10530992
-1.3049999 1.6650001 4.0149999 10530992
-1.295 1.6550001 4.0149999 11579584
-1.295 1.6650001 4.0149999 10530992
-1.285 1.6350001 4.0149999 10531008
-1.275 1.6350001 4.0149999 11579584
-1.285 1.6550001 4.0149999 11579584
-1.285 1.6650001 4.0149999 11579568
-1.275 1.6550001 4.0149999 11579584
-1.275 1.6650001 4.0149999 11579584
-1.3449999 1.6750001 4.0149999 10530992
-1.3349999 1.6750001 4.0149999 10530992
-1.3349999 1.6950001 4.0250001 10530992
-1.3249999 1.6750001 4.0149999 10530992
-1.3249999 1.6850001 4.0250001 10530992
-1.3149999 1.6750001 4.0149999 10530992
-1.3149999 1.6850001 4.0149999 10530992
-1.3149999 1.705 4.0250001 10530992
-1.3449999 1.6950001 4.0349998 10530992
-1.3449999 1.705 4.0349998 10530992
-1.3349999 1.705 4.0349998 10530992
-1.3249999 1.705 4.0349998 10530992
-1.3449999 1.715 4.0250001 10530992
-1.3449999 1.725 4.0250001 10530992
-1.3349999 1.725 4.0250001 10530992
-1.3449999 1.735 4.0250001 10530992
-1.3149999 1.715 4.0250001 10530992
-1.3149999 1.725 4.0250001 10530992
-1.3349999 1.715 4.0349998 10530992
-1.3449999 1.745 4.0349998 10526896
-1.3349999 1.735 4.0349998 10530992
-1.3349999 1.745 4.0349998 11579568
-1.3249999 1.715 4.0349998 10530992
-1.3249999 1.725 4.0349998 10530992
-1.3249999 1.735 4.0349998 10526896
-1.3249999 1.745 4.0349998 11579568
-1.3149999 1.735 4.0349998 10530992
-1.3049999 1.6750001 4.0250001 11579568
-1.3049999 1.6850001 4.0149999 10530992
-1.3049999 1.705 4.0250001 10530992
-1.295 1.705 4.0250001 10530992
-1.285 1.6750001 4.0149999 11579584
-1.285 1.6850001 4.0149999 11579568
-1.275 1.6750001 4.0149999 11579584
-1.275 1.6850001 4.0149999 10530992
-1.285 1.6950001 4.0250001 11579568
-1.3049999 1.715 4.0250001 11579568
-1.3049999 1.725 4.0250001 10530992
-1.295 1.715 4.0250001 10530992
-1.285 1.715 4.0250001 10530992
-1.295 1.725 4.0349998 10530992
-1.3049999 1.735 4.0349998 10530992
-1.295 1.735 4.0349998 10526896
-1.285 1.725 4.0349998 10530992
-1.275 1.715 4.0349998 10530992
-1.275 1.725 4.0349998 10530992
-1.285 1.735 4.0349998 10530992
-1.275 1.735 4.0349998 10530992
-1.275 1.745 4.0349998 10530992
-1.425 1.7550001 4.0250001 10526896
-1.415 1.7650001 4.0349998 10526896
-1.425 1.7750001 4.0349998 10526896
-1.425 1.7850001 4.0450001 10526896
-1.415 1.7750001 4.0349998 10526896
-1.405 1.7550001 4.0349998 10526896
-1.405 1.7650001 4.0349998 10526896
-1.395 1.7550001 4.0349998 10530992
-1.395 1.7650001 4.0349998 10530992
-1.405 1.7750001 4.0450001 10526896
-1.405 1.7850001 4.0450001 10526896
-1.395 1.7750001 4.0450001 10530992
-1.395 1.7850001 4.0450001 10526896
-1.425 1.8050001 4.0450001 10526896
-1.415 1.8050001 4.0450001 10526896
-1.425 1.8150001 4.0450001 10526896
-1.425 1.825 4.0450001 10526896
-1.415 1.8150001 4.0450001 10526896
-1.415 1.825 4.0450001 10526896
-1.395 1.8050001 4.0450001 10526896
-1.405 1.825 4.0450001 10526896
-1.395 1.8150001 4.0450001 10526896
-1.385 1.7550001 4.0349998 10526896
-1.385 1.7650001 4.0349998 10530992
-1.375 1.7650001 4.0349998 10530992
-1.385 1.7750001 4.0349998 10526896
-1.385 1.7850001 4.0349998 10526896
-1.375 1.7750001 4.0450001 10530992
-1.375 1.7850001 4.0349998 10530992
-1.3649999 1.7650001 4.0349998 10526896
-1.3549999 1.7650001 4.0349998 10526896
-1.3649999 1.7750001 4.0349998 10530992
-1.3649999 1.7850001 4.0450001 10526896
-1.3549999 1.7750001 4.0349998 10526896
-1.3549999 1.7850001 4.0450001 10530992
-1.385 1.7950001 4.0349998 10526896
-1.385 1.8050001 4.0349998 10526896
-1.375 1.7950001 4.0349998 10526896
-1.375 1.8050001 4.0349998 10526896
-1.385 1.825 4.0450001 10526896
-1.375 1.825 4.0450001 10526896
-1.3649999 1.7950001 4.0349998 10526896
-1.3649999 1.8050001 4.0450001 10526896
-1.3549999 1.7950001 4.0450001 10526896
-1.3649999 1.825 4.0450001 10526896
-1.3549999 1.8150001 4.0450001 10526896
-1.3549999 1.825 4.0450001 10526896
-1.425 1.845 4.0450001 10526880
-1.415 1.835 4.0349998 10526880
-1.415 1.855 4.0450001 10526880
-1.425 1.865 4.0549998 10526880
-1.405 1.835 4.0450001 10526896
-1.405 1.845 4.0349998 10526880
-1.405 1.845 4.0450001 10526880
-1.395 1.835 4.0450001 10526896
-1.395 1.855 4.0450001 10526880
-1.395 1.865 4.0450001 10526880
-1.415 1.8850001 4.0450001 10526880
-1.425 1.875 4.0549998 10526880
-1.425 1.8850001 4.0549998 10526880
-1.415 1.875 4.0549998 10526880
-1.415 1.8950001 4.0450001 10526880
-1.425 1.8950001 4.0549998 10526880
-1.425 1.9050001 4.0549998 10526880
-1.415 1.9050001 4.0549998 10526880
-1.405 1.875 4.0450001 10526880
-1.405 1.8950001 4.0450001 10526880
-1.395 1.9050001 4.0450001 10526880
-1.405 1.9050001 4.0549998 10526880
-1.385 1.835 4.0450001 10526896
-1.385 1.845 4.0450001 10526896
-1.375 1.835 4.0450001 10526896
-1.375 1.845 4.0450001 10526880
-1.385 1.855 4.0349998 10526880
-1.385 1.865 4.0349998 10526880
-1.375 1.855 4.0450001 10526880
-1.375 1.865 4.0349998 10526880
-1.3649999 1.845 4.0450001 10526896
-1.3549999 1.835 4.0450001 10526896
-1.3549999 1.845 4.0450001 10526880
-1.3649999 1.835 4.0549998 10526896
-1.3649999 1.855 4.0450001 10526880
-1.3649999 1.865 4.0450001 10526880
-1.3549999 1.855 4.0450001 10526880
-1.3549999 1.865 4.0450001 10526880
-1.385 1.875 4.0349998 10526880
-1.385 1.8850001 4.0349998 10526880
-1.375 1.875 4.0450001 10526880
-1.375 1.8850001 4.0349998 10526880
-1.375 1.9050001 4.0450001 10526880
-1.3649999 1.8850001 4.0450001 10526880
-1.3549999 1.875 4.0450001 10526880
-1.3549999 1.8850001 4.0450001 10526880
-1.3649999 1.8950001 4.0450001 10526880
-1.3649999 1.9050001 4.0450001 10526880
-1.3549999 1.9050001 4.0450001 10526880
-1.3349999 1.7650001 4.0349998 10530992
-1.3449999 1.7850001 4.0450001 10526896
-1.3349999 1.7750001 4.0349998 10530992
-1.3349999 1.7850001 4.0349998 10530992
-1.3249999 1.7650001 4.0349998 10530992
-1.3149999 1.7550001 4.0349998 10530992
-1.3149999 1.7650001 4.0349998 10530992
-1.3249999 1.7750001 4.0349998 11579568
-1.3149999 1.7750001 4.0349998 10530992
-1.3149999 1.7850001 4.0349998 10530992
-1.3449999 1.7950001 4.0450001 10526896
-1.3449999 1.8050001 4.0349998 10526896
-1.3349999 1.7950001 4.0349998 10526896
-1.3449999 1.8150001 4.0349998 10526896
-1.3449999 1.825 4.0349998 10526896
-1.3249999 1.7950001 4.0450001 10526896
-1.3249999 1.8050001 4.0349998 10526896
-1.3149999 1.8050001 4.0349998 10526896
-1.3249999 1.8150001 4.0349998 10526896
-1.3249999 1.8150001 4.0450001 10526896
-1.3249999 1.825 4.0349998 10526896
-1.3149999 1.825 4.0349998 10526896
-1.3049999 1.7550001 4.0349998 10530992
-1.3049999 1.7650001 4.0349998 10530992
-1.295 1.7550001 4.0349998 10530992
-1.295 1.7650001 4.0349998 10530992
-1.3049999 1.7750001 4.0349998 10530992
-1.3049999 1.7850001 4.0349998 10530992
-1.295 1.7750001 4.0349998 10530992
-1.295 1.7850001 4.0349998 10530992
-1.285 1.7550001 4.0349998 10530992
-1.285 1.7650001 4.0349998 10530992
-1.275 1.7650001 4.0349998 10530992
-1.285 1.7750001 4.0349998 10530992
-1.285 1.7850001 4.0349998 10530992
-1.275 1.7750001 4.0349998 10530992
-1.275 1.7850001 4.0450001 10530992
-1.3049999 1.7950001 4.0349998 10530992
-1.3049999 1.8050001 4.0349998 10526896
-1.295 1.7950001 4.0349998 10526896
-1.295 1.8050001 4.0349998 10530992
-1.3049999 1.8150001 4.0349998 10526896
-1.3049999 1.825 4.0349998 10526896
-1.295 1.825 4.0450001 10526896
-1.285 1.7950001 4.0349998 10526896
-1.285 1.8050001 4.0450001 10530992
-1.275 1.7950001 4.0450001 10530992
-1.285 1.825 4.0450001 10526896
-1.275 1.8150001 4.0450001 10530992
-1.275 1.825 4.0450001 10526896
-1.3449999 1.845 4.0349998 10526896
-1.3349999 1.845 4.0349998 10526896
-1.3449999 1.855 4.0450001 10526880
-1.3449999 1.865 4.0450001 10526880
-1.3349999 1.855 4.0450001 10526896
-1.3349999 1.865 4.0450001 10526880
-1.3249999 1.845 4.0349998 10526896
-1.3149999 1.845 4.0450001 10526896
-1.3249999 1.865 4.0450001 10526896
-1.3149999 1.855 4.0349998 10526896
-1.3149999 1.855 4.0450001 10526896
-1.3449999 1.875 4.0450001 10526880
-1.3449999 1.8850001 4.0450001 10526880
-1.3349999 1.875 4.0450001 10526880
-1.3349999 1.8850001 4.0450001 10526880
-1.3449999 1.9050001 4.0450001 10526880
-1.3349999 1.9050001 4.0450001 10526880
-1.3249999 1.8850001 4.0549998 10526880
-1.3149999 1.875 4.0549998 10526896
-1.3149999 1.8850001 4.0549998 10526880
-1.3249999 1.8950001 4.0549998 10526880
-1.3249999 1.9050001 4.0549998 10526880
-1.3149999 1.8950001 4.0549998 10526880
-1.3149999 1.9050001 4.0549998 10526880
-1.295 1.835 4.0450001 10526896
-1.3049999 1.845 4.0549998 10526896
-1.3049999 1.855 4.0450001 10526896
-1.3049999 1.865 4.0549998 10526880
-1.285 1.835 4.0450001 10526896
-1.285 1.845 4.0450001 10526896
-1.275 1.835 4.0450001 10526896
-1.275 1.845 4.0450001 10526896
-1.285 1.855 4.0450001 10526896
-1.285 1.865 4.0450001 10526896
-1.275 1.855 4.0349998 10526896
-1.275 1.865 4.0349998 10526896
-1.3049999 1.875 4.0450001 10526880
-1.295 1.875 4.0549998 10526880
-1.3049999 1.9050001 4.0450001 10526880
-1.295 1.9050001 4.0450001 10526880
-1.3049999 1.8950001 4.0549998 10526880
-1.295 1.8950001 4.0549998 10526880
-1.275 1.875 4.0450001 10526896
-1.275 1.9050001 4.0450001 10526880
-1.285 1.8950001 4.0549998 10526880
-1.895 1.9450001 3.9349999 9474176
-1.895 1.9450001 3.9550002 9474192
-1.905 1.9450001 3.9750001 8421504
-1.885 1.9350001 3.9550002 8421504
-1.885 1.9450001 3.9750001 8421504
-1.875 1.9350001 3.9750001 9474176
-1.895 1.955 3.9650002 9474192
-1.905 1.965 3.9750001 9474176
-1.885 1.955 3.9550002 9474192
-1.8649999 1.9350001 3.9450002 9474192
-1.8649999 1.9450001 3.9349999 9474192
-1.8649999 1.9450001 3.9650002 9474192
-1.8549999 1.9450001 3.9650002 9474192
-1.8649999 1.9450001 3.9850001 8421504
-1.8349999 1.9450001 3.9650002 9474192
-1.8449999 1.9450001 3.9850001 5263440
-1.8549999 1.955 3.9450002 9474192
-1.8549999 1.955 3.9550002 9474192
-1.8549999 1.955 3.9850001 9474192
-1.8349999 1.955 3.9650002 9474192
-1.8449999 1.965 3.9750001 9474192
-1.8249999 1.9450001 3.9650002 10526880
-1.8149999 1.9450001 3.9750001 9474192
-1.8049999 1.9450001 3.9750001 7368816
-1.8149999 1.955 3.9550002 9474192
-1.8149999 1.965 3.9750001 9474192
-1.8049999 1.955 3.9750001 9474192
-1.785 1.9450001 3.9450002 9474192
-1.765 1.9450001 3.9450002 9474192
-1.785 1.9450001 3.9650002 10526880
-1.775 1.9450001 3.9650002 9474192
-1.785 1.9450001 3.9850001 5263440
-1.765 1.9450001 3.9650002 9474192
-1.755 1.9450001 3.9650002 9474208
-1.755 1.9350001 3.9750001 5263440
-1.765 1.955 3.9650002 9474192
-1.755 1.955 3.9750001 9474192
-1.895 1.9450001 4.0250001 9470080
-1.875 1.9350001 4.0149999 9474176
-1.905 1.9250001 4.0450001 9474192
-1.905 1.9250001 4.0549998 9474192
-1.895 1.9150001 4.0549998 9474192
-1.895 1.9250001 4.0549998 9474192
-1.895 1.9350001 4.0349998 9474176
-1.895 1.9350001 4.0549998 9474192
-1.885 1.9150001 4.0650001 9474192
-1.885 1.9250001 4.0549998 9474192
-1.875 1.9150001 4.0650001 9474192
-1.875 1.9250001 4.0650001 9474192
-1.885 1.9350001 4.0349998 9474176
-1.875 1.9350001 4.0450001 9474176
-1.885 1.9350001 4.0549998 9474192
-1.875 1.9350001 4.0549998 9474192
-1.875 1.9450001 4.0549998 9474176
-1.905 1.955 4.0149999 9474176
-1.885 1.955 4.0050001 8421504
-1.8649999 1.9350001 3.9950001 8421504
-1.8549999 1.9450001 3.9950001 9474176
-1.8649999 1.9350001 4.0149999 9470080
-1.8349999 1.9450001 3.9950001 4210752
-1.8649999 1.9150001 4.0650001 9474192
-1.8649999 1.9250001 4.0650001 9474192
-1.8549999 1.9250001 4.0650001 9474192
-1.8649999 1.9450001 4.0349998 9474176
-1.8649999 1.9350001 4.0650001 9474192
-1.8649999 1.9450001 4.0650001 9474176
-1.8549999 1.9350001 4.0650001 9474192
-1.8549999 1.9450001 4.0650001 9474176
-1.8349999 1.9250001 4.0650001 10522768
-1.8349999 1.9350001 4.0549998 9474192
-1.8349999 1.9350001 4.0650001 9474192
-1.8349999 1.9450001 4.0549998 9474176
-1.8549999 1.955 4.0250001 9474192
-1.8549999 1.965 4.0450001 10526880
-1.8649999 1.955 4.0549998 9474176
-1.8549999 1.955 4.0650001 9470080
-1.8449999 1.965 4.0450001 10526880
-1.8349999 1.955 4.0450001 9474192
-1.8349999 1.9150001 4.0750003 9474192
-1.8349999 1.9250001 4.0750003 9474192
-1.8249999 1.9450001 4.0250001 10522768
-1.8249999 1.9450001 4.0450001 9474176
-1.8249999 1.9350001 4.0650001 9474192
-1.8249999 1.9450001 4.0650001 9474176
-1.8049999 1.9150001 4.0650001 10522768
-1.8049999 1.9250001 4.0650001 9474192
-1.795 1.9150001 4.0549998 9474192
-1.795 1.9350001 4.0650001 9474192
-1.8249999 1.955 4.0050001 5263440
-1.8049999 1.955 4.0050001 5263440
-1.8149999 1.955 4.0349998 10526880
-1.8149999 1.965 4.0450001 10526880
-1.8149999 1.955 4.0549998 9474176
-1.795 1.955 4.0450001 10526880
-1.8049999 1.955 4.0650001 9474176
-1.795 1.955 4.0549998 9474176
-1.755 1.9450001 3.9950001 5263440
-1.765 1.9450001 4.0250001 9474192
-1.775 1.9150001 4.0549998 9474192
-1.785 1.9450001 4.0650001 9474176
-1.775 1.9450001 4.0549998 9474176
-1.765 1.9150001 4.0549998 9474192
-1.755 1.9150001 4.0549998 9474192
-1.785 1.955 4.0149999 4210768
-1.785 1.955 4.0349998 10526880
-1.775 1.955 4.0650001 9474176
-1.765 1.955 4.0349998 10522768
-1.755 1.965 4.0349998 5263440
-1.765 1.955 4.0650001 9474176
-1.755 1.965 4.0549998 10522768
-1.8249999 1.9250001 4.0750003 9474192
-1.8149999 1.9150001 4.0750003 9474192
-1.8249999 1.9450001 4.0750003 9474176
-1.8149999 1.9350001 4.0750003 9474192
-1.8149999 1.9450001 4.0750003 9474192
-1.795 1.9450001 4.0750003 9474192
-1.785 1.9350001 4.0750003 9474192
-1.775 1.9350001 4.0750003 9474192
-1.775 1.9450001 4.0750003 9474192
-1.765 1.9350001 4.0750003 9474192
-1.765 1.9450001 4.0750003 9474192
-1.755 1.9350001 4.0750003 9474192
-1.755 1.9450001 4.0750003 9474192
-1.755 1.965 4.0750003 9474176
-1.7449999 1.9450001 3.9650002 9474192
-1.7449999 1.955 3.9650002 9474192
-1.7249999 1.955 3.9550002 9474192
-1.7249999 1.965 3.9850001 9474192
-1.6949999 1.9450001 3.9750001 10526880
-1.675 1.9350001 3.9650002 10526880
-1.675 1.9450001 3.9550002 9474192
-1.675 1.955 3.9450002 8421504
-1.7049999 1.955 3.9850001 10526880
-1.7049999 1.965 3.9750001 9474176
-1.7049999 1.965 3.9850001 9474192
-1.665 1.9450001 3.9349999 8421504
-1.655 1.9450001 3.9450002 9474192
-1.665 1.9350001 3.9650002 10526880
-1.665 1.9450001 3.9550002 9474192
-1.655 1.9450001 3.9650002 9474192
-1.655 1.9450001 3.9750001 10526880
-1.645 1.9450001 3.9750001 8421504
-1.665 1.965 3.9650002 9474176
-1.655 1.965 3.9750001 8421504
-1.655 1.965 3.9850001 9474192
-1.645 1.965 3.9750001 9474192
-1.635 1.955 3.9750001 9474192
-1.625 1.9450001 3.9850001 8421504
-1.6149999 1.9450001 3.9750001 9474192
-1.5949999 1.9450001 3.9650002 9474192
-1.6049999 1.9450001 3.9750001 8425616
-1.5949999 1.9450001 3.9850001 9474192
-1.625 1.955 3.9650002 9474192
-1.625 1.965 3.9650002 9474192
-1.625 1.955 3.9750001 9474192
-1.6149999 1.955 3.9750001 9474192
-1.6149999 1.965 3.9750001 9474192
-1.5949999 1.955 3.9650002 10526880
-1.7449999 1.9150001 4.0650001 10522768
-1.7349999 1.9150001 4.0549998 9474192
-1.7149999 1.9150001 4.0450001 9474192
-1.7249999 1.9250001 4.0549998 9474192
-1.7249999 1.9350001 4.0549998 9474192
-1.7249999 1.9450001 4.0549998 9470080
-1.7449999 1.955 4.0050001 5263440
-1.7349999 1.955 3.9950001 10526880
-1.7349999 1.985 4.0050001 9474176
-1.7249999 1.955 4.0050001 10526880
-1.7249999 1.965 3.9950001 9474192
-1.7249999 1.955 4.0149999 5263440
-1.7149999 1.955 4.0149999 5263440
-1.7249999 1.975 3.9950001 9474176
-1.7449999 1.955 4.0450001 9474192
-1.7249999 1.955 4.0450001 9474192
-1.7249999 1.955 4.0549998 10526880
-1.6949999 1.9450001 3.9950001 5263440
-1.6849999 1.9450001 3.9950001 5263440
-1.675 1.9450001 4.0050001 8421504
-1.7049999 1.9150001 4.0349998 9474192
-1.7049999 1.9250001 4.0349998 9474192
-1.6949999 1.9150001 4.0450001 10522768
-1.6949999 1.9250001 4.0450001 9474192
-1.6949999 1.9250001 4.0650001 10522768
-1.7049999 1.9350001 4.0349998 9470080
-1.7049999 1.9450001 4.0549998 9474192
-1.6949999 1.9350001 4.0549998 9474192
-1.6849999 1.9150001 4.0549998 10526880
-1.675 1.9150001 4.0549998 10526880
-1.675 1.9250001 4.0650001 9474192
-1.675 1.9350001 4.0549998 9474192
-1.675 1.9450001 4.0549998 9474192
-1.6849999 1.955 4.0149999 5263440
-1.7049999 1.955 4.0549998 9474192
-1.7049999 1.965 4.0549998 9474192
-1.6949999 1.965 4.0650001 9474192
-1.675 1.955 4.0450001 9474192
-1.7449999 1.9450001 4.0750003 9474192
-1.7349999 1.9350001 4.0750003 9474192
-1.7449999 1.955 4.0750003 9470080
-1.6949999 1.9450001 4.0750003 9474192
-1.6949999 1.955 4.0750003 9474192
-1.655 1.9450001 4.0250001 9474192
-1.635 1.9450001 4.0050001 7368816
-1.645 1.9450001 4.0149999 8421504
-1.645 1.9450001 4.0250001 9474192
-1.635 1.9450001 4.0250001 9474192
-1.665 1.9150001 4.0650001 10522768
-1.665 1.9250001 4.0549998 9474192
-1.655 1.9150001 4.0650001 10522768
-1.655 1.9250001 4.0549998 9474192
-1.665 1.9450001 4.0450001 9474192
-1.655 1.9450001 4.0450001 9474176
-1.665 1.9350001 4.0549998 9474192
-1.655 1.9350001 4.0549998 9474192
-1.645 1.9150001 4.0650001 10522768
-1.645 1.9250001 4.0650001 10522768
-1.635 1.9150001 4.0650001 10526880
-1.635 1.9250001 4.0549998 9474192
-1.645 1.9450001 4.0450001 9474176
-1.645 1.9350001 4.0549998 9474192
-1.635 1.9350001 4.0549998 9474192
-1.665 1.955 4.0149999 7368816
-1.645 1.955 4.0050001 9478304
-1.625 1.9450001 4.0050001 7368832
-1.6149999 1.9450001 4.0050001 7368816
-1.5949999 1.9450001 4.0149999 7368816
-1.625 1.9150001 4.0549998 10526864
-1.6149999 1.9250001 4.0549998 10522768
-1.625 1.9450001 4.0349998 9474192
-1.625 1.9450001 4.0450001 9474192
-1.6149999 1.9350001 4.0450001 9474192
-1.6149999 1.9450001 4.0450001 9474192
-1.6049999 1.9150001 4.0450001 9474192
-1.6049999 1.9250001 4.0450001 9474192
-1.5949999 1.9150001 4.0450001 10526880
-1.5949999 1.9250001 4.0450001 10522768
-1.6049999 1.9150001 4.0549998 10526880
-1.6049999 1.9450001 4.0450001 9474192
-1.5949999 1.9450001 4.0549998 9474192
-1.6049999 1.955 4.0250001 7368832
-1.6149999 1.955 4.0450001 9474192
-1.6049999 1.955 4.0450001 9474192
-1.5949999 1.955 4.0450001 9474192
-1.5749999 1.9450001 3.9650002 9474192
-1.5649999 1.9450001 3.9650002 9474192
-1.5649999 1.955 3.9450002 9474192
-1.5549999 1.955 3.9450002 9474192
-1.5849999 1.955 3.9550002 10526864
-1.5849999 1.955 3.9750001 9474192
-1.5549999 1.955 3.9650002 10526880
-1.5549999 1.955 3.9750001 9474192
-1.515 1.9450001 3.9650002 9478304
-1.545 1.955 3.9650002 9474192
-1.545 1.955 3.9850001 9474192
-1.535 1.955 3.9750001 9474208
-1.525 1.955 3.9550002 9478304
-1.515 1.955 3.9550002 9478304
-1.515 1.955 3.9850001 9478304
-1.515 1.965 3.9750001 10526880
-1.4949999 1.9350001 3.9750001 6316128
-1.4949999 1.9450001 3.9850001 7368816
-1.4749999 1.9250001 3.9550002 7368816
-1.4849999 1.9450001 3.9650002 10526880
-1.4749999 1.9350001 3.9550002 10526880
-1.505 1.965 3.9750001 10526880
-1.4849999 1.955 3.9650002 10526880
-1.4749999 1.955 3.9550002 10526880
-1.4549999 1.9350001 3.9450002 10526880
-1.4449999 1.9350001 3.9450002 9478304
-1.4449999 1.9450001 3.9450002 10526880
-1.4349999 1.9350001 3.9450002 10526880
-1.4349999 1.9450001 3.9349999 10526880
-1.4649999 1.9350001 3.9650002 8421504
-1.4549999 1.9350001 3.9750001 8421504
-1.4449999 1.9350001 3.9750001 8421504
-1.4349999 1.9450001 3.9850001 8421504
-1.4549999 1.955 3.9550002 10526880
-1.5849999 1.9250001 4.0549998 10526880
-1.5749999 1.9150001 4.0549998 10526880
-1.5749999 1.9250001 4.0549998 10522768
-1.5849999 1.9450001 4.0349998 9474192
-1.5849999 1.9350001 4.0549998 9474192
-1.5849999 1.9450001 4.0549998 9474192
-1.5749999 1.9350001 4.0650001 10522768
-1.5749999 1.9450001 4.0549998 9474192
-1.5649999 1.9150001 4.0650001 10526880
-1.5649999 1.9250001 4.0650001 10522768
-1.5549999 1.9250001 4.0549998 10526880
-1.5649999 1.9350001 4.0650001 10522768
-1.5649999 1.9450001 4.0650001 9474192
-1.5549999 1.9350001 4.0650001 9474192
-1.5549999 1.9450001 4.0650001 9474192
-1.5849999 1.955 3.9950001 9474192
-1.5749999 1.955 3.9950001 9474192
-1.5849999 1.955 4.0250001 7368832
-1.5649999 1.955 3.9950001 9474192
-1.5649999 1.955 4.0250001 7368816
-1.5549999 1.955 4.0149999 9474192
-1.5549999 1.955 4.0250001 10526880
-1.5749999 1.955 4.0349998 7368816
-1.5749999 1.955 4.0450001 9474192
-1.5649999 1.955 4.0450001 9474192
-1.5549999 1.955 4.0549998 9474192
-1.545 1.9250001 4.0650001 10526880
-1.545 1.9350001 4.0650001 10522768
-1.545 1.9450001 4.0650001 9474192
-1.535 1.9350001 4.0650001 10522768
-1.535 1.9450001 4.0650001 9474192
-1.525 1.9250001 4.0549998 10522784
-1.525 1.9250001 4.0650001 10526880
-1.515 1.9450001 4.0349998 9474192
-1.525 1.9350001 4.0650001 9474192
-1.515 1.9450001 4.0549998 9474192
-1.535 1.955 4.0050001 6316128
-1.545 1.955 4.0149999 6316128
-1.535 1.955 4.0250001 10526880
-1.525 1.955 4.0050001 6316128
-1.515 1.955 4.0250001 10526880
-1.545 1.965 4.0450001 10526880
-1.545 1.955 4.0549998 9474192
-1.525 1.955 4.0450001 9474192
-1.505 1.9450001 4.0050001 10526880
-1.4949999 1.9450001 4.0050001 10526880
-1.4749999 1.9450001 4.0050001 10526880
-1.505 1.9150001 4.0549998 10526880
-1.4949999 1.9150001 4.0549998 10526880
-1.505 1.9450001 4.0450001 9474192
-1.505 1.9350001 4.0549998 10522784
-1.505 1.9450001 4.0549998 9474192
-1.4949999 1.9350001 4.0650001 9474208
-1.4949999 1.9450001 4.0549998 9474192
-1.4849999 1.9150001 4.0549998 9474208
-1.4749999 1.9150001 4.0549998 10526880
-1.4849999 1.9350001 4.0450001 9474192
-1.4749999 1.9450001 4.0349998 9474192
-1.4849999 1.9350001 4.0549998 9474192
-1.4749999 1.9350001 4.0549998 9474208
-1.505 1.955 3.9950001 9478304
-1.4949999 1.955 4.0450001 9474192
-1.4549999 1.9450001 4.0050001 10526880
-1.4649999 1.9350001 4.0250001 9474208
-1.4649999 1.9450001 4.0149999 10526880
-1.4449999 1.9450001 4.0149999 10526880
-1.4349999 1.9450001 4.0250001 9474208
-1.4549999 1.9150001 4.0450001 10526880
-1.4649999 1.9350001 4.0450001 9474192
-1.4549999 1.9350001 4.0450001 9474192
-1.4549999 1.9450001 4.0349998 9474208
-1.4649999 1.9350001 4.0549998 10526880
-1.4549999 1.9350001 4.0549998 10522784
-1.4549999 1.9450001 4.0549998 9474192
-1.4449999 1.9150001 4.0549998 10526880
-1.4349999 1.9150001 4.0549998 10526880
-1.4449999 1.9450001 4.0349998 10522768
-1.4349999 1.9450001 4.0349998 9474192
-1.4349999 1.9350001 4.0549998 10526880
-1.4349999 1.9350001 4.0650001 10522784
-1.4349999 1.9450001 4.0549998 9474192
-1.425 1.9450001 3.9450002 10526880
-1.425 1.9350001 3.9550002 10526880
-1.415 1.9350001 3.9550002 9478304
-1.425 1.9450001 3.9850001 8421504
-1.405 1.9450001 3.9650002 9478304
-1.405 1.9450001 3.9750001 10526880
-1.415 1.955 3.9550002 10526880
-1.405 1.955 3.9650002 10526880
-1.395 1.955 3.9650002 10526880
-1.385 1.9450001 3.9650002 10526880
-1.375 1.9450001 3.9650002 10526880
-1.375 1.9350001 3.9750001 6316128
-1.385 1.955 3.9650002 10526880
-1.375 1.955 3.9650002 10526880
-1.375 1.975 3.9850001 8421504
-1.3649999 1.955 3.9750001 10526880
-1.3649999 1.955 3.9850001 10526880
-1.3549999 1.955 3.9850001 10526880
-1.3549999 1.965 3.9750001 7368816
-1.3549999 1.965 3.9850001 10526880
-1.3349999 1.9450001 3.9850001 10526880
-1.3249999 1.9450001 3.9850001 8421504
-1.3149999 1.9350001 3.9850001 6316128
-1.3149999 1.9450001 3.9750001 10526880
-1.3449999 1.955 3.9650002 9478304
-1.3449999 1.965 3.9650002 7372928
-1.3349999 1.955 3.9650002 10526880
-1.3349999 1.965 3.9650002 7368816
-1.3249999 1.965 3.9650002 7368816
-1.3249999 1.955 3.9750001 10526880
-1.3149999 1.955 3.9750001 10526880
-1.3149999 1.965 3.9750001 7368816
-1.295 1.9350001 3.9650002 10526880
-1.295 1.9450001 3.9550002 10526880
-1.3049999 1.9350001 3.9850001 7368816
-1.295 1.9350001 3.9850001 6316144
-1.285 1.9350001 3.9650002 10526880
-1.285 1.9450001 3.9550002 10526880
-1.275 1.9450001 3.9650002 10526880
-1.285 1.9450001 3.9750001 10526880
-1.275 1.9450001 3.9850001 10526880
-1.295 1.965 3.9650002 7368816
-1.285 1.955 3.9550002 7368816
-1.275 1.965 3.9650002 7368816
-1.415 1.9450001 3.9950001 8421504
-1.425 1.9450001 4.0250001 9474192
-1.415 1.9450001 4.0149999 9474208
-1.405 1.9450001 3.9950001 8421504
-1.395 1.9450001 3.9950001 8421504
-1.405 1.9450001 4.0149999 10526880
-1.395 1.9450001 4.0149999 10526880
-1.425 1.9150001 4.0549998 10526880
-1.415 1.9150001 4.0549998 10526880
-1.425 1.9450001 4.0349998 9474192
-1.415 1.9450001 4.0450001 9474192
-1.425 1.9450001 4.0549998 9474192
-1.415 1.9350001 4.0549998 9474192
-1.415 1.9350001 4.0650001 10522784
-1.405 1.9250001 4.0650001 10526880
-1.395 1.9250001 4.0650001 10526880
-1.405 1.9450001 4.0450001 9474192
-1.405 1.9350001 4.0650001 10526880
-1.405 1.9450001 4.0549998 9474192
-1.395 1.9450001 4.0650001 9474192
-1.395 1.955 4.0549998 9474192
-1.375 1.9450001 3.9950001 6316128
-1.375 1.9450001 4.0250001 10526880
-1.3649999 1.9450001 3.9950001 6316128
-1.3549999 1.9450001 4.0050001 6316128
-1.3649999 1.9450001 4.0250001 10526880
-1.3549999 1.9450001 4.0250001 10526880
-1.385 1.9150001 4.0549998 10526880
-1.375 1.9150001 4.0549998 10526880
-1.375 1.9250001 4.0549998 10526880
-1.375 1.9450001 4.0450001 9474192
-1.385 1.9350001 4.0650001 10526880
-1.385 1.9450001 4.0650001 9474192
-1.375 1.9350001 4.0549998 9474192
-1.3549999 1.9250001 4.0450001 10526880
-1.3549999 1.9150001 4.0549998 10526880
-1.3649999 1.9450001 4.0349998 9474192
-1.3549999 1.9450001 4.0349998 9474192
-1.3549999 1.9350001 4.0549998 9474192
-1.3549999 1.9450001 4.0650001 9474192
-1.3649999 1.955 3.9950001 10526880
-1.385 1.955 4.0349998 10526880
-1.395 1.9350001 4.0750003 10526880
-1.3449999 1.9450001 3.9950001 6316128
-1.3449999 1.9450001 4.0250001 10526880
-1.3249999 1.9450001 4.0250001 10526880
-1.3149999 1.9450001 4.0149999 10526880
-1.3349999 1.9150001 4.0450001 10526880
-1.3349999 1.9250001 4.0450001 10526880
-1.3449999 1.9150001 4.0549998 10526880
-1.3449999 1.9250001 4.0549998 10526880
-1.3449999 1.9450001 4.0450001 9474192
-1.3349999 1.9450001 4.0450001 9474192
-1.3349999 1.9450001 4.0549998 9474192
-1.3249999 1.9150001 4.0549998 10526880
-1.3249999 1.9250001 4.0549998 10526880
-1.3149999 1.9150001 4.0549998 10526880
-1.3149999 1.9250001 4.0549998 10526880
-1.3249999 1.9450001 4.0450001 9474192
-1.3149999 1.9450001 4.0450001 9474192
-1.3249999 1.9350001 4.0549998 9474192
-1.3149999 1.9350001 4.0549998 9474192
-1.3049999 1.9450001 4.0250001 10526880
-1.285 1.9450001 3.9950001 7368816
-1.275 1.9450001 4.0050001 7368816
-1.295 1.9150001 4.0450001 10526880
-1.295 1.9250001 4.0450001 10526880
-1.3049999 1.9150001 4.0549998 10526880
-1.3049999 1.9250001 4.0549998 10526880
-1.3049999 1.9450001 4.0450001 9474192
-1.3049999 1.9350001 4.0549998 9474192
-1.295 1.9350001 4.0549998 9474208
-1.295 1.9450001 4.0549998 9474192
-1.275 1.9150001 4.0450001 10526880
-1.285 1.9250001 4.0549998 10522784
-1.275 1.9250001 4.0549998 10526880
-1.285 1.9350001 4.0549998 9474192
-1.275 1.9450001 4.0549998 9474208
-1.275 1.955 4.0149999 7368816
-1.295 1.955 4.0349998 10526880
-1.285 1.955 4.0349998 10526880
-1.285 1.955 4.0549998 9474192
-1.285 1.965 4.0549998 10526880
-1.265 0.0050000595 2.7350001 2105376
-1.1949999 0.015000059 2.7250001 2105376
-1.1949999 0.02500006 2.7450001 2105392
-1.2149999 0.015000059 2.7850001 2105376
-1.1949999 0.065000057 2.7250001 2105392
-1.2149999 0.03500006 2.7650001 2105392
-1.2049999 0.055000059 2.7850001 2105392
-1.265 -0.0049999403 2.7950001 2105376
-1.255 -0.0049999403 2.8150001 2105376
-1.255 0.015000059 2.825 2105392
-1.255 0.02500006 2.825 2105376
-1.2449999 -0.0049999403 2.825 2105376
-1.2449999 0.0050000595 2.825 2105376
-1.2449999 0.015000059 2.825 2105376
-1.265 -0.0049999403 2.835 2105376
-1.255 -0.0049999403 2.845 2105376
-1.265 0.0050000595 2.865 2105376
-1.255 0.015000059 2.835 2105392
-1.265 0.02500006 2.865 2105376
-1.255 0.015000059 2.855 2105392
-1.2449999 -0.0049999403 2.845 2105376
-1.2449999 -0.0049999403 2.865 2105376
-1.265 0.045000061 2.8050001 2105392
-1.255 0.03500006 2.8150001 2105392
-1.2349999 0.03500006 2.8150001 2105392
-1.2449999 0.055000059 2.825 2105392
-1.255 0.045000061 2.845 2105392
-1.265 0.065000057 2.855 2105392
-1.255 0.055000059 2.865 2105392
-1.2349999 0.045000061 2.855 2109488
-1.2449999 0.065000057 2.845 2105392
-1.2249999 0.0050000595 2.8050001 2105376
-1.2149999 0.015000059 2.8050001 2105392
-1.2249999 0.055000059 2.7950001 2105392
-1.2249999 0.055000059 3.0050001 7372928
-1.165 0.015000059 2.905 1052704
-1.1849999 0.02500006 2.925 2105392
-1.155 0.015000059 2.925 2105392
-1.175 0.045000061 2.905 2109488
-1.265 -0.0049999403 3.0650001 8425616
-1.265 0.0050000595 3.0550001 9474192
-1.265 0.015000059 3.0550001 9474192
-1.265 0.02500006 3.0650001 9474192
-1.255 0.015000059 3.0550001 1056800
-1.255 0.02500006 3.0550001 2109488
-1.265 0.03500006 3.0650001 9478288
-1.255 0.03500006 3.0650001 4214864
-1.255 0.045000061 3.0550001 9478288
-1.255 0.045000061 3.0650001 5263440
-1.265 0.065000057 3.0550001 11579568
-1.255 0.055000059 3.0550001 9478304
-1.255 0.065000057 3.0550001 10530976
-1.2449999 0.055000059 3.0450001 8421504
-0.81499994 0.065000057 2.575 3158080
-0.82499993 0.055000059 2.595 3162176
-0.76499993 0.03500006 2.5650001 3158080
-0.76499993 0.03500006 2.595 3158080
-0.75499994 0.03500006 2.595 3158080
-0.72499996 0.065000057 2.585 2105408
-0.72499996 0.045000061 2.605 2101296
-0.75499994 -0.0049999403 2.675 1056816
-0.75499994 0.055000059 2.6849999 2105392
-0.74499995 0.015000059 2.655 1056816
-0.74499995 0.02500006 2.675 1056816
-0.74499995 0.015000059 2.6950002 12636400
-0.74499995 0.065000057 2.665 2105408
-0.77499992 0.075000063 2.585 3158080
-0.73499995 0.075000063 2.605 2105408
-0.72499996 0.08500006 2.605 2105408
-0.74499995 0.10500006 2.675 4210800
-0.75499994 -0.0049999403 2.7150002 11583728
-0.71499991 -0.0049999403 3.8050001 13684944
-0.71499991 0.0050000595 3.8050001 13684944
-0.72499996 -0.0049999403 3.8150001 13684944
-0.72499996 0.0050000595 3.8150001 13684944
-0.72499996 0.015000059 3.8050001 13684944
-0.71499991 0.015000059 3.8050001 13689040
-0.71499991 0.02500006 3.8050001 13689040
-0.72499996 0.02500006 3.8150001 13684944
-0.73499995 0.055000059 3.825 13689056
-0.73499995 0.065000057 3.825 13684944
-0.71499991 0.03500006 3.8050001 13684944
-0.72499996 0.03500006 3.8150001 13684944
-0.72499996 0.045000061 3.8150001 13684944
-0.71499991 0.045000061 3.8150001 13689040
-0.71499991 0.055000059 3.8150001 13689040
-0.71499991 0.065000057 3.8150001 14737616
-0.73499995 0.075000063 3.825 13684944
-0.73499995 0.08500006 3.825 13684944
-0.73499995 0.095000058 3.825 13684944
-0.71499991 0.075000063 3.8150001 13689040
-0.71499991 0.08500006 3.825 13689040
-0.72499996 0.10500006 3.825 13689040
-0.71499991 0.095000058 3.825 13689040
-0.71499991 0.10500006 3.825 14737616
-0.72499996 0.11500006 3.825 13689040
-0.71499991 0.11500006 3.825 14737616
-0.71499991 0.12500006 3.825 14737616
-0.72499996 0.14500006 3.825 13684944
-0.71499991 0.14500006 3.825 13689040
-0.70499992 -0.0049999403 3.8050001 13689040
-0.69499993 -0.0049999403 3.8050001 13689040
-0.70499992 0.0050000595 3.8150001 14737616
-0.69499993 0.0050000595 3.8150001 14737616
-0.70499992 0.02500006 3.8050001 14737616
-0.70499992 0.015000059 3.8150001 13689040
-0.69499993 0.015000059 3.8150001 13689040
-0.69499993 0.02500006 3.8150001 14737616
-0.68499994 -0.0049999403 3.8050001 14737616
-0.67499995 -0.0049999403 3.8050001 13689040
-0.67499995 0.0050000595 3.8050001 13689040
-0.68499994 0.0050000595 3.8150001 13689040
-0.68499994 0.015000059 3.8150001 13689040
-0.68499994 0.02500006 3.8150001 13689040
-0.67499995 0.015000059 3.8150001 13689040
-0.67499995 0.02500006 3.8150001 14737616
-0.70499992 0.03500006 3.8150001 14737616
-0.70499992 0.045000061 3.8150001 13689040
-0.69499993 0.03500006 3.8150001 13689040
-0.69499993 0.045000061 3.8150001 14737616
-0.70499992 0.055000059 3.8150001 13689040
-0.70499992 0.065000057 3.8150001 14737616
-0.69499993 0.055000059 3.8150001 13689040
-0.69499993 0.065000057 3.8150001 13689040
-0.68499994 0.03500006 3.8150001 14737616
-0.68499994 0.045000061 3.8150001 13689040
-0.67499995 0.03500006 3.8150001 14737616
-0.67499995 0.045000061 3.8150001 14737616
-0.68499994 0.055000059 3.8150001 14737616
-0.68499994 0.065000057 3.8150001 14737616
-0.67499995 0.055000059 3.8150001 14737616
-0.67499995 0.065000057 3.8150001 14737616
-0.66499996 -0.0049999403 3.8050001 14737616
-0.66499996 0.0050000595 3.8050001 13689040
-0.65499991 -0.0049999403 3.8050001 14737616
-0.65499991 0.0050000595 3.8050001 14737616
-0.66499996 0.015000059 3.8150001 14737616
-0.66499996 0.02500006 3.8150001 14737616
-0.65499991 0.015000059 3.8150001 14737616
-0.65499991 0.02500006 3.8150001 14737616
-0.64499992 -0.0049999403 3.8050001 14737616
-0.63499993 0.0050000595 3.8050001 14737616
-0.64499992 0.0050000595 3.8150001 14737616
-0.63499993 -0.0049999403 3.8150001 14737616
-0.64499992 0.015000059 3.8150001 14737616
-0.64499992 0.02500006 3.8150001 14737616
-0.63499993 0.015000059 3.8150001 14737616
-0.63499993 0.02500006 3.8150001 14737616
-0.66499996 0.03500006 3.8150001 14737616
-0.66499996 0.045000061 3.8150001 14737616
-0.65499991 0.03500006 3.8150001 14737616
-0.65499991 0.045000061 3.8150001 14737616
-0.66499996 0.055000059 3.8150001 14737616
-0.66499996 0.065000057 3.8150001 14737616
-0.65499991 0.055000059 3.8150001 14737616
-0.65499991 0.065000057 3.8150001 14737616
-0.64499992 0.03500006 3.8150001 14737616
-0.64499992 0.045000061 3.8150001 14737616
-0.63499993 0.03500006 3.8150001 14737616
-0.63499993 0.045000061 3.8150001 14737616
-0.64499992 0.055000059 3.8150001 14737616
-0.64499992 0.065000057 3.8150001 14737616
-0.63499993 0.055000059 3.8150001 14737616
-0.63499993 0.065000057 3.8150001 14737616
-0.70499992 0.075000063 3.825 14737616
-0.70499992 0.08500006 3.825 14737616
-0.69499993 0.075000063 3.825 14737616
-0.70499992 0.095000058 3.825 14737616
-0.70499992 0.10500006 3.825 14737616
-0.69499993 0.10500006 3.825 14737616
-0.68499994 0.075000063 3.825 14737616
-0.68499994 0.08500006 3.825 14737632
-0.67499995 0.075000063 3.825 14737616
-0.67499995 0.08500006 3.825 14737616
-0.68499994 0.095000058 3.825 14737616
-0.67499995 0.095000058 3.825 14737616
-0.67499995 0.10500006 3.825 14737616
-0.70499992 0.11500006 3.825 14737616
-0.70499992 0.12500006 3.825 14737616
-0.69499993 0.11500006 3.825 14737616
-0.70499992 0.14500006 3.825 14737616
-0.68499994 0.12500006 3.825 14737616
-0.67499995 0.11500006 3.825 14737616
-0.67499995 0.12500006 3.825 14737616
-0.68499994 0.14500006 3.825 14737616
-0.67499995 0.14500006 3.825 14737616
-0.66499996 0.075000063 3.8150001 14737616
-0.66499996 0.08500006 3.8150001 14737616
-0.65499991 0.075000063 3.8150001 14737616
-0.65499991 0.08500006 3.8150001 14737616
-0.66499996 0.095000058 3.825 14737616
-0.66499996 0.10500006 3.825 14737632
-0.65499991 0.095000058 3.8150001 14737616
-0.65499991 0.10500006 3.825 14737616
-0.64499992 0.075000063 3.8150001 14737616
-0.64499992 0.08500006 3.8150001 14737616
-0.63499993 0.075000063 3.8150001 14737632
-0.63499993 0.08500006 3.8150001 14737632
-0.64499992 0.095000058 3.8150001 14737616
-0.64499992 0.10500006 3.8150001 14737616
-0.63499993 0.095000058 3.825 14737616
-0.63499993 0.10500006 3.825 14737616
-0.66499996 0.11500006 3.825 14737632
-0.66499996 0.12500006 3.825 14737632
-0.65499991 0.11500006 3.825 14737616
-0.65499991 0.12500006 3.825 14737616
-0.66499996 0.14500006 3.825 14737616
-0.65499991 0.14500006 3.825 14737616
-0.64499992 0.11500006 3.825 14737616
-0.64499992 0.12500006 3.825 14737616
-0.63499993 0.11500006 3.825 14737616
-0.63499993 0.12500006 3.825 14737616
-0.64499992 0.14500006 3.825 14737632
-0.63499993 0.14500006 3.825 14737616
-0.71499991 0.15500006 3.825 14737616
-0.71499991 0.16500007 3.825 14737616
-0.69499993 0.15500006 3.825 13689040
-0.69499993 0.16500007 3.825 14737616
-0.70499992 0.18500006 3.825 14737616
-0.69499993 0.17500006 3.825 14737616
-0.68499994 0.15500006 3.825 14737616
-0.68499994 0.16500007 3.825 14737616
-0.67499995 0.15500006 3.825 14737616
-0.67499995 0.16500007 3.825 14737616
-0.68499994 0.17500006 3.825 14737632
-0.67499995 0.17500006 3.825 14737616
-0.67499995 0.18500006 3.825 14737616
-0.66499996 0.15500006 3.825 14737616
-0.66499996 0.16500007 3.825 14737616
-0.65499991 0.15500006 3.825 14737616
-0.65499991 0.16500007 3.825 14737616
-0.66499996 0.17500006 3.825 14737616
-0.66499996 0.18500006 3.825 14737616
-0.65499991 0.17500006 3.825 14737616
-0.65499991 0.18500006 3.825 14737616
-0.64499992 0.15500006 3.825 14737616
-0.64499992 0.16500007 3.825 14737616
-0.63499993 0.15500006 3.825 14737632
-0.63499993 0.16500007 3.825 14737616
-0.63499993 0.17500006 3.825 14737616
-0.94499993 0.51500005 3.7550001 15790320
-1.045 1.1350001 3.325 15790320
-0.23499994 0.0050000595 2.645 2109488
-0.24499995 0.0050000595 2.675 3158064
-0.21499994 0.015000059 2.5550001 3158064
-0.22499993 0.0050000595 2.625 2109488
-0.22499993 0.015000059 2.595 3158064
-0.21499994 0.02500006 2.605 3158064
-0.22499993 0.015000059 2.615 3158064
-0.22499993 0.015000059 2.625 3158064
-0.20499994 0.015000059 2.595 2109488
-0.20499994 0.015000059 2.605 2109488
-0.20499994 0.015000059 2.625 2109488
-0.20499994 0.02500006 2.615 3158064
-0.20499994 0.02500006 2.625 3158064
-0.20499994 0.03500006 2.575 3158064
-0.19499993 0.03500006 2.595 2109488
-0.15499994 0.02500006 2.585 3158064
-0.17499994 0.015000059 2.625 2109472
-0.16499995 -0.0049999403 2.625 2109472
-0.15499994 -0.0049999403 2.625 2109472
-0.16499995 0.015000059 2.615 3158064
-0.16499995 0.02500006 2.615 3158064
-0.15499994 0.02500006 2.615 3158064
-0.17499994 0.03500006 2.615 3158064
-0.17499994 0.03500006 2.625 3158064
-0.17499994 0.045000061 2.625 3158064
-0.17499994 0.055000059 2.595 3158064
-0.16499995 0.03500006 2.595 3158064
-0.16499995 0.03500006 2.615 3158064
-0.15499994 0.03500006 2.625 3158064
-0.15499994 0.055000059 2.615 2109488
-0.21499994 -0.0049999403 2.645 2109488
-0.21499994 0.0050000595 2.645 2109488
-0.20499994 0.0050000595 2.635 2109488
-0.20499994 -0.0049999403 2.665 2109488
-0.22499993 -0.0049999403 2.675 2105392
-0.21499994 0.0050000595 2.6950002 2109488
-0.19499993 0.0050000595 2.675 2109488
-0.19499993 -0.0049999403 2.6950002 2109472
-0.20499994 0.015000059 2.675 2109488
-0.19499993 0.015000059 2.6849999 2109488
-0.19499993 0.02500006 2.6849999 3158064
-0.19499993 0.015000059 2.6950002 3158064
-0.20499994 0.03500006 2.635 3158064
-0.19499993 0.03500006 2.665 3158064
-0.19499993 0.03500006 2.6950002 3158064
-0.18499994 0.015000059 2.645 3158064
-0.18499994 0.02500006 2.645 2109472
-0.17499994 0.015000059 2.645 3158064
-0.18499994 0.015000059 2.665 3158064
-0.17499994 0.02500006 2.655 3158064
-0.15499994 0.0050000595 2.645 3158064
-0.16499995 0.0050000595 2.655 2109472
-0.16499995 0.015000059 2.645 3158064
-0.15499994 0.015000059 2.635 2109472
-0.15499994 0.015000059 2.645 3158064
-0.18499994 0.0050000595 2.7050002 3158064
-0.18499994 0.03500006 2.645 3158064
-0.18499994 0.045000061 2.645 3158064
-0.15499994 0.03500006 2.645 3158064
-0.15499994 0.03500006 2.655 3158064
-0.18499994 0.03500006 2.6849999 3158064
-0.20499994 0.015000059 2.7150002 3158064
-0.20499994 0.02500006 2.7150002 3158064
-0.13499995 0.015000059 2.5650001 2109488
-0.14499994 0.015000059 2.575 3158064
-0.11499994 -0.0049999403 2.575 2109472
-0.11499994 0.0050000595 2.585 2109472
-0.13499995 -0.0049999403 2.605 2109472
-0.13499995 0.0050000595 2.605 2109472
-0.14499994 -0.0049999403 2.625 2105376
-0.14499994 0.0050000595 2.625 2109472
-0.14499994 0.015000059 2.595 3158064
-0.14499994 0.02500006 2.595 2109472
-0.13499995 0.015000059 2.605 3158064
-0.13499995 0.02500006 2.615 3158064
-0.12499994 0.0050000595 2.605 3158064
-0.11499994 -0.0049999403 2.595 2109472
-0.12499994 -0.0049999403 2.625 2109472
-0.12499994 0.0050000595 2.625 2109472
-0.12499994 0.015000059 2.595 3158064
-0.12499994 0.015000059 2.605 2109472
-0.12499994 0.02500006 2.605 2109472
-0.11499994 0.015000059 2.595 2109472
-0.11499994 0.02500006 2.605 3158064
-0.12499994 0.015000059 2.615 2109472
-0.12499994 0.015000059 2.625 2105376
-0.11499994 0.055000059 2.5650001 2109488
-0.14499994 0.045000061 2.595 3158064
-0.14499994 0.045000061 2.625 3158064
-0.14499994 0.055000059 2.595 3158064
-0.14499994 0.055000059 2.615 2109488
-0.13499995 0.065000057 2.615 2109488
-0.12499994 0.03500006 2.605 2109488
-0.12499994 0.045000061 2.605 2109488
-0.11499994 0.03500006 2.605 2105376
-0.11499994 0.03500006 2.625 2109488
-0.11499994 0.045000061 2.615 2109488
-0.12499994 0.055000059 2.605 3158064
-0.12499994 0.065000057 2.615 3158064
-0.094999939 -0.0049999403 2.585 2109472
-0.094999939 0.0050000595 2.585 2105376
-0.10499994 0.015000059 2.5650001 2109472
-0.094999939 0.015000059 2.5550001 2109472
-0.094999939 0.015000059 2.5650001 2109472
-0.10499994 0.015000059 2.575 2109472
-0.10499994 0.02500006 2.585 2109472
-0.094999939 0.015000059 2.575 2109472
-0.094999939 0.02500006 2.575 2109472
-0.074999943 -0.0049999403 2.5650001 2109472
-0.084999941 -0.0049999403 2.585 2109472
-0.074999943 -0.0049999403 2.585 2109472
-0.074999943 0.0050000595 2.575 2109472
-0.074999943 0.0050000595 2.585 2105376
-0.10499994 -0.0049999403 2.605 2109472
-0.10499994 0.0050000595 2.605 2109472
-0.094999939 -0.0049999403 2.605 2109472
-0.094999939 0.0050000595 2.595 2109472
-0.084999941 0.0050000595 2.615 2109472
-0.084999941 0.015000059 2.595 2109472
-0.084999941 0.015000059 2.605 2109472
-0.084999941 0.02500006 2.605 2105376
-0.074999943 0.02500006 2.605 2109472
-0.074999943 0.015000059 2.615 2109472
-0.074999943 0.015000059 2.625 2109472
-0.074999943 0.02500006 2.615 2109472
-0.094999939 0.045000061 2.5650001 3158064
-0.10499994 0.03500006 2.585 2109472
-0.10499994 0.045000061 2.585 2109472
-0.094999939 0.03500006 2.585 2109472
-0.094999939 0.045000061 2.575 3158064
-0.10499994 0.055000059 2.5650001 2109472
-0.094999939 0.055000059 2.5650001 2109472
-0.10499994 0.055000059 2.575 2109472
-0.094999939 0.055000059 2.575 3158064
-0.094999939 0.055000059 2.585 3158048
-0.084999941 0.045000061 2.5550001 2109472
-0.074999943 0.03500006 2.5650001 2105376
-0.074999943 0.03500006 2.575 2109472
-0.074999943 0.03500006 2.585 2109472
-0.074999943 0.045000061 2.575 2109472
-0.084999941 0.055000059 2.5650001 3158064
-0.074999943 0.055000059 2.5550001 2109472
-0.074999943 0.055000059 2.5650001 2109472
-0.074999943 0.065000057 2.5550001 2109472
-0.074999943 0.065000057 2.575 2109472
-0.10499994 0.03500006 2.605 3158064
-0.094999939 0.03500006 2.625 2109472
-0.084999941 0.03500006 2.595 2109472
-0.074999943 0.03500006 2.595 2109472
-0.12499994 0.02500006 2.635 2109472
-0.14499994 0.03500006 2.645 3158064
-0.13499995 0.03500006 2.635 3158064
-0.13499995 0.03500006 2.645 3158064
-0.13499995 0.045000061 2.665 3158064
-0.13499995 0.055000059 2.635 3158064
-0.12499994 0.03500006 2.635 2109488
-0.12499994 0.055000059 2.635 2109488
-0.064999938 -0.0049999403 2.5650001 2105376
