# .PCD v0.7 - Point Cloud Data file format
VERSION 0.7
FIELDS x y z rgba
SIZE 4 4 4 4
TYPE F F F U
COUNT 1 1 1 1
WIDTH 1335
HEIGHT 1
VIEWPOINT 0 0 0 1 0 0 0
POINTS 1335
DATA ascii
-2.7649999 1.7650001 3.895 11579568
-2.7349999 1.7550001 3.865 11579568
-2.7549999 1.8950001 3.865 11579568
-2.7849998 1.9050001 3.885 11575472
-2.7149999 1.8850001 3.885 11579568
-2.6849999 1.605 3.865 10531024
-2.6949999 1.605 3.895 10531024
-2.675 1.6650001 3.865 11579584
-2.6849999 1.6650001 3.905 11583712
-2.655 1.595 3.865 10531024
-2.635 1.605 3.895 10531008
-2.645 1.6550001 3.855 11583696
-2.7049999 1.595 3.915 8421520
-2.7049999 1.605 3.9450002 9474208
-2.6949999 1.595 3.9550002 9474208
-2.6849999 1.625 3.9850001 10531008
-2.655 1.625 3.9450002 10531008
-2.655 1.595 3.9550002 8421520
-2.655 1.595 3.9850001 9474192
-2.655 1.6450001 3.915 10531024
-2.675 1.705 3.835 11579568
-2.6949999 1.6750001 3.875 11579584
-2.7049999 1.715 3.845 11579568
-2.7049999 1.725 3.835 11579568
-2.7049999 1.735 3.835 11579568
-2.675 1.725 3.835 11579568
-2.6849999 1.745 3.865 11579568
-2.675 1.735 3.865 11579568
-2.655 1.745 3.875 11579568
-2.615 1.615 3.845 10531024
-2.615 1.615 3.875 10531024
-2.605 1.615 3.885 10531024
-2.615 1.6350001 3.895 10531024
-2.585 1.625 3.845 10531024
-2.585 1.605 3.885 10531024
-2.575 1.595 3.895 10531008
-2.585 1.6350001 3.845 11583712
-2.5549998 1.6450001 3.855 11583696
-2.5650001 1.6550001 3.835 11579584
-2.5650001 1.6650001 3.845 11579568
-2.5549998 1.6350001 3.885 10531024
-2.5650001 1.6450001 3.905 10531024
-2.5549998 1.6350001 3.895 11579600
-2.615 1.6350001 3.925 10531024
-2.575 1.605 3.925 10531008
-2.5650001 1.595 3.915 10526896
-2.5549998 1.605 3.925 10531008
-2.5549998 1.605 3.9450002 10526896
-2.575 1.595 3.9550002 8425616
-2.575 1.605 3.9550002 10526896
-2.5650001 1.615 3.9550002 10531008
-2.5650001 1.625 3.9750001 10531008
-2.5549998 1.625 3.9750001 10531008
-2.5650001 1.6350001 3.9750001 10531024
-2.615 1.715 3.845 11579568
-2.625 1.715 3.855 11579568
-2.5650001 1.6750001 3.865 11579568
-2.585 1.6750001 3.885 11579584
-2.7049999 1.7850001 3.835 11579568
-2.675 1.7850001 3.835 11579568
-2.6949999 1.825 3.875 11579568
-2.6849999 1.7550001 3.925 11579568
-2.665 1.8850001 3.835 11579568
-2.635 1.8950001 3.865 11579568
-2.615 1.8050001 3.845 11579568
-2.585 1.7750001 3.845 11579568
-2.575 1.7750001 3.845 11579568
-2.585 1.825 3.845 11579568
-2.5549998 1.825 3.855 11579568
-2.595 1.835 3.845 11579568
-2.595 1.845 3.835 11579568
-2.605 1.835 3.855 11579568
-2.605 1.855 3.845 11579568
-2.615 1.875 3.865 11579568
-2.625 1.8950001 3.845 11579568
-2.625 1.9050001 3.865 11579568
-2.605 1.8950001 3.845 11579568
-2.595 1.8950001 3.855 11579568
-2.575 1.835 3.845 11579568
-2.5650001 1.835 3.845 11579568
-2.5650001 1.845 3.845 11579568
-2.5549998 1.835 3.835 11579568
-2.5650001 1.835 3.865 11579568
-2.5549998 1.845 3.855 11579568
-2.585 1.875 3.835 11579568
-2.585 1.875 3.845 11579568
-2.575 1.8950001 3.835 11575472
-2.5650001 1.8850001 3.835 11579568
-2.585 1.875 3.895 11579568
-2.8150001 1.9250001 3.895 11575472
-2.7949998 1.9150001 3.875 11575472
-2.8049998 1.9350001 3.915 11575472
-1.275 -0.88499993 1.745 1052672
-1.275 -0.87499994 1.735 1052672
-1.275 -0.86499995 1.725 1052672
-1.275 -0.83499992 1.745 1052672
-1.275 -0.82499993 1.7550001 1052672
-1.275 -0.80499995 1.745 1052672
-1.275 -0.78499997 1.7750001 1052672
-1.275 -0.76499993 1.7550001 1052672
-1.275 -0.76499993 1.7650001 1052672
-1.275 -0.74499995 1.7650001 1052672
-1.275 -0.73499995 1.7550001 1052672
-1.275 -0.73499995 1.7650001 1052672
-1.285 -0.73499995 1.7850001 1052672
-1.275 -0.73499995 1.7750001 1052672
-1.285 -0.73499995 1.7950001 4096
-1.275 -0.73499995 1.7950001 4096
-1.275 -0.72499996 1.7650001 1052672
-1.275 -0.71499991 1.7550001 1052672
-1.275 -0.71499991 1.7650001 1052672
-1.275 -0.72499996 1.7750001 1052672
-1.275 -0.72499996 1.7850001 1052672
-1.275 -0.71499991 1.7850001 4096
-1.275 -0.70499992 1.7650001 1052672
-1.285 -0.70499992 1.7850001 1052672
-1.285 -0.69499993 1.7850001 4096
-1.275 -0.70499992 1.7750001 1052672
-1.275 -0.70499992 1.7850001 4096
-1.275 -0.69499993 1.7750001 4096
-1.275 -0.69499993 1.7850001 4096
-1.295 -0.69499993 1.825 0
-1.275 -0.72499996 1.7950001 4096
-1.275 -0.69499993 1.7950001 0
-1.275 -0.68499994 1.7750001 0
-1.275 -0.67499995 1.7750001 0
-1.275 -0.67499995 1.7850001 0
-1.285 -0.66499996 1.7850001 0
-1.275 -0.66499996 1.7750001 0
-1.275 -0.66499996 1.7850001 0
-1.275 -0.65499991 1.7850001 0
-1.295 -0.68499994 1.7950001 0
-1.295 -0.66499996 1.8050001 0
-1.285 -0.68499994 1.8050001 0
-1.275 -0.68499994 1.7950001 0
-1.275 -0.68499994 1.8050001 0
-1.285 -0.66499996 1.7950001 0
-1.285 -0.65499991 1.7950001 0
-1.285 -0.65499991 1.8050001 0
-1.275 -0.66499996 1.7950001 0
-1.275 -0.65499991 1.7950001 0
-1.4449999 -1.0949999 2.5250001 3158064
-1.3149999 -1.0849999 2.2450001 4214880
-1.275 -1.045 2.2550001 4214880
-1.515 -0.65499991 2.125 3153936
-1.525 -0.65499991 2.135 3153936
-1.4949999 -0.90499991 2.355 4210736
-1.4749999 -0.89499992 2.355 3162160
-1.4549999 -0.89499992 2.345 4210736
-1.4449999 -0.89499992 2.325 4210752
-1.4449999 -0.90499991 2.345 4210736
-1.4449999 -0.89499992 2.345 4210736
-1.4349999 -0.89499992 2.335 4210736
-1.4549999 -0.89499992 2.365 3162160
-1.4549999 -0.88499993 2.3050001 4210736
-1.4549999 -0.86499995 2.2950001 3162160
-1.4349999 -0.88499993 2.3050001 4210736
-1.4849999 -0.88499993 2.325 1052688
-1.4549999 -0.88499993 2.3150001 4210736
-1.4549999 -0.88499993 2.325 3162160
-1.4549999 -0.87499994 2.3150001 3162160
-1.4549999 -0.88499993 2.345 3162160
-1.4449999 -0.88499993 2.3150001 4210736
-1.415 -0.89499992 2.325 4210736
-1.3549999 -0.89499992 2.335 4210736
-1.3649999 -0.89499992 2.375 3158064
-1.425 -0.87499994 2.3050001 4210736
-1.395 -0.87499994 2.3050001 4210736
-1.385 -0.88499993 2.2950001 4210736
-1.385 -0.88499993 2.3050001 4210736
-1.375 -0.88499993 2.3050001 4210736
-1.385 -0.86499995 2.2850001 3158064
-1.3649999 -0.88499993 2.3050001 4210736
-1.3649999 -0.87499994 2.3050001 3158064
-1.3549999 -0.88499993 2.3050001 4210736
-1.415 -0.87499994 2.3150001 2109472
-1.415 -0.88499993 2.335 4210736
-1.405 -0.88499993 2.3150001 4210736
-1.405 -0.87499994 2.3150001 3162160
-1.395 -0.87499994 2.3150001 3158064
-1.395 -0.87499994 2.325 3158064
-1.405 -0.88499993 2.335 3158064
-1.395 -0.88499993 2.335 3162160
-1.385 -0.88499993 2.3150001 4210736
-1.385 -0.88499993 2.325 3162160
-1.375 -0.88499993 2.325 3162160
-1.375 -0.87499994 2.3150001 3162160
-1.375 -0.87499994 2.345 3162160
-1.3649999 -0.88499993 2.3150001 3162160
-1.3649999 -0.88499993 2.325 3162160
-1.3649999 -0.87499994 2.325 3158064
-1.3549999 -0.88499993 2.3150001 4210736
-1.3649999 -0.88499993 2.335 3162160
-1.3649999 -0.88499993 2.345 3158064
-1.3549999 -0.88499993 2.335 3158064
-1.385 -0.88499993 2.365 3158064
-1.3649999 -0.88499993 2.355 3158064
-1.3549999 -0.88499993 2.365 2109488
-1.3449999 -0.89499992 2.3150001 3158048
-1.3449999 -0.89499992 2.325 3158064
-1.3449999 -0.89499992 2.335 3158064
-1.3349999 -0.89499992 2.335 4210736
-1.3349999 -0.89499992 2.345 3162160
-1.3249999 -0.89499992 2.335 3162160
-1.3249999 -0.89499992 2.345 4210736
-1.3149999 -0.89499992 2.345 3162160
-1.3249999 -0.91499996 2.385 3158048
-1.3249999 -0.90499991 2.355 3158064
-1.3249999 -0.90499991 2.365 3158048
-1.3149999 -0.90499991 2.365 3162160
-1.285 -0.89499992 2.345 3158064
-1.275 -0.89499992 2.335 3158064
-1.275 -0.89499992 2.345 3158064
-1.3049999 -0.90499991 2.365 3158064
-1.3049999 -0.89499992 2.355 3158064
-1.3049999 -0.89499992 2.365 3158064
-1.295 -0.90499991 2.355 3158064
-1.295 -0.89499992 2.355 3158064
-1.285 -0.89499992 2.355 3158064
-1.275 -0.89499992 2.355 3158064
-1.3449999 -0.85499996 2.2750001 3162160
-1.3449999 -0.85499996 2.2950001 3162160
-1.3449999 -0.88499993 2.335 4210736
-1.3449999 -0.88499993 2.345 3162160
-1.3349999 -0.88499993 2.345 3158064
-1.3249999 -0.88499993 2.345 3162160
-1.3249999 -0.87499994 2.335 2109488
-1.3149999 -0.88499993 2.345 3158064
-1.3149999 -0.87499994 2.335 2109488
-1.3149999 -0.88499993 2.365 2109472
-1.295 -0.87499994 2.335 2105376
-1.275 -0.88499993 2.345 3158064
-1.295 -0.88499993 2.355 3158064
-1.285 -0.88499993 2.355 2109488
-1.275 -0.88499993 2.355 3158064
-1.3449999 -0.92499995 2.395 3158048
-1.275 -0.64499992 1.7650001 0
-1.275 -0.64499992 1.7750001 0
-1.275 -0.64499992 1.7850001 0
-1.275 -0.61499995 1.7750001 2105376
-1.295 -0.61499995 1.8050001 3158048
-1.295 -0.61499995 1.8150001 2105360
-1.295 -0.61499995 1.825 1052672
-1.275 -0.64499992 1.7950001 0
-1.285 -0.61499995 1.7950001 2105360
-1.275 -0.61499995 1.7950001 0
-1.275 -0.61499995 1.8050001 1048576
-1.275 -0.61499995 1.8150001 2101248
-1.3049999 -0.60499996 1.8150001 2105360
-1.3049999 -0.60499996 1.825 2097152
-1.3349999 -0.62499994 1.855 3158048
-1.3149999 -0.62499994 1.835 1056784
-1.3149999 -0.61499995 1.835 0
-1.3149999 -0.61499995 1.855 6299664
-1.285 -0.63499993 1.855 3153952
-1.285 -0.61499995 1.835 4206624
-1.3149999 -0.27499995 1.8850001 0
-1.645 -0.18499994 2.4349999 7377104
-1.4649999 -0.61499995 2.0550001 3158048
-1.4449999 -0.61499995 2.0550001 4206624
-1.4449999 -0.59499997 2.0250001 4206624
-1.4449999 -0.58499992 2.0250001 4206624
-1.4549999 -0.59499997 2.0350001 4206624
-1.4549999 -0.59499997 2.0450001 4206624
-1.4649999 -0.57499993 2.0550001 5259296
-1.4449999 -0.57499993 2.0350001 4206624
-1.4349999 -0.57499993 2.0350001 4206624
-1.515 -0.64499992 2.115 3158032
-1.4849999 -0.63499993 2.085 3153936
-1.4849999 -0.63499993 2.095 3153936
-1.4849999 -0.62499994 2.075 4206624
-1.4849999 -0.62499994 2.085 3158048
-1.4749999 -0.61499995 2.095 4206624
-1.505 -0.64499992 2.115 3153936
-1.4949999 -0.64499992 2.115 3153936
-1.4949999 -0.63499993 2.115 3158048
-1.505 -0.61499995 2.135 4206624
-1.4749999 -0.60499996 2.075 4206624
-1.4849999 -0.59499997 2.095 4206624
-1.4849999 -0.57499993 2.085 5255200
-1.4849999 -0.58499992 2.095 5255200
-1.505 -0.57499993 2.125 5259312
-1.4649999 -0.61499995 2.075 4206624
-1.4649999 -0.60499996 2.085 4206624
-1.4849999 -0.56499994 2.085 5255200
-1.4849999 -0.56499994 2.105 4206624
-1.4349999 -0.34499994 2.0250001 3158048
-1.425 -0.33499995 2.0050001 3158048
-1.415 -0.33499995 2.0050001 3153952
-1.425 -0.34499994 2.0250001 3158048
-1.415 -0.33499995 2.0150001 3158048
-1.405 -0.33499995 2.0050001 3158048
-1.395 -0.34499994 2.0050001 3158048
-1.395 -0.33499995 2.0050001 3158048
-1.405 -0.34499994 2.0150001 3158048
-1.395 -0.34499994 2.0250001 3158048
-1.395 -0.33499995 2.0150001 3158048
-1.395 -0.33499995 2.0250001 3158048
-1.425 -0.34499994 2.0350001 3158048
-1.385 -0.34499994 2.0050001 3158048
-1.385 -0.33499995 1.995 3158048
-1.385 -0.33499995 2.0050001 3158048
-1.375 -0.33499995 2.0050001 3158048
-1.385 -0.34499994 2.0250001 3158048
-1.385 -0.33499995 2.0150001 3158048
-1.385 -0.33499995 2.0250001 3158048
-1.375 -0.33499995 2.0150001 3158048
-1.3649999 -0.34499994 2.0050001 3158048
-1.3649999 -0.33499995 2.0050001 3158048
-1.3549999 -0.33499995 2.0050001 3158048
-1.3649999 -0.33499995 2.0150001 3158048
-1.3549999 -0.34499994 2.0250001 3158064
-1.3549999 -0.33499995 2.0150001 3158048
-1.3549999 -0.33499995 2.0250001 3158048
-1.375 -0.35499993 2.0550001 3162160
-1.3649999 -0.35499993 2.0550001 2109472
-1.3449999 -0.33499995 1.985 3158048
-1.3449999 -0.34499994 2.0050001 3158048
-1.3449999 -0.33499995 1.995 3158048
-1.3449999 -0.33499995 2.0050001 3158048
-1.3449999 -0.34499994 2.0250001 3158048
-1.3349999 -0.34499994 2.0250001 3158048
-1.3349999 -0.33499995 2.0150001 3158048
-1.3249999 -0.33499995 1.995 3158048
-1.3249999 -0.33499995 2.0150001 3158048
-1.3149999 -0.34499994 2.0150001 3158064
-1.3149999 -0.33499995 2.0150001 3158048
-1.3449999 -0.35499993 2.0450001 3158048
-1.3349999 -0.35499993 2.0550001 3158064
-1.3249999 -0.34499994 2.0350001 3158064
-1.3149999 -0.34499994 2.0450001 3158064
-1.3049999 -0.33499995 2.0150001 3158048
-1.3049999 -0.33499995 2.0250001 3158048
-1.295 -0.34499994 2.0250001 3158064
-1.285 -0.33499995 2.0250001 3158048
-1.275 -0.34499994 2.0150001 3158064
-1.275 -0.34499994 2.0250001 3158048
-1.275 -0.33499995 2.0150001 3158048
-1.275 -0.33499995 2.0250001 3158048
-1.3049999 -0.35499993 2.0450001 3162160
-1.3049999 -0.34499994 2.0350001 4210736
-1.295 -0.33499995 2.0350001 3158048
-1.4449999 -0.29499993 2.0450001 8413248
-1.4549999 -0.21499994 2.0650001 13676720
-1.4449999 -0.24499995 2.0650001 12624032
-1.4349999 -0.24499995 2.0550001 13676720
-1.4349999 -0.22499993 2.0350001 14725280
-1.4449999 -0.21499994 2.0550001 13676720
-1.4349999 -0.20499994 2.0250001 13676736
-1.4449999 -0.20499994 2.0450001 10531008
-1.545 -0.23499994 2.2250001 5275824
-1.525 -0.20499994 2.165 10531008
-1.4749999 -0.21499994 2.095 9474224
-1.4749999 -0.24499995 2.115 11579584
-1.405 -0.31499994 1.985 8413216
-1.395 -0.31499994 1.975 7360544
-1.405 -0.30499995 1.985 10518592
-1.405 -0.29499993 1.985 12623968
-1.395 -0.30499995 1.975 10514480
-1.395 -0.30499995 1.985 12619840
-1.405 -0.26499993 1.985 10514512
-1.395 -0.26499993 1.985 11567232
-1.395 -0.25499994 1.985 12624032
-1.385 -0.32499993 1.985 3158048
-1.385 -0.31499994 1.975 7360544
-1.385 -0.31499994 1.985 8409120
-1.375 -0.32499993 1.985 6307872
-1.375 -0.31499994 1.975 7360544
-1.375 -0.31499994 1.985 8409120
-1.385 -0.30499995 1.985 10518576
-1.385 -0.29499993 1.975 13672544
-1.385 -0.29499993 1.985 13676672
-1.375 -0.30499995 1.975 9465904
-1.375 -0.29499993 1.975 13676672
-1.3549999 -0.31499994 1.965 7360544
-1.3549999 -0.32499993 1.985 6307872
-1.3549999 -0.31499994 1.975 7360544
-1.3649999 -0.29499993 1.965 12619856
-1.3549999 -0.29499993 1.955 12619856
-1.3649999 -0.30499995 1.975 10514480
-1.3549999 -0.30499995 1.975 10514480
-1.3549999 -0.29499993 1.975 14733536
-1.3549999 -0.26499993 1.9350001 3158048
-1.385 -0.26499993 1.975 11575440
-1.3649999 -0.28499994 1.955 14729392
-1.415 -0.32499993 1.995 3158048
-1.415 -0.29499993 2.0150001 1048576
-1.405 -0.32499993 1.995 3158048
-1.395 -0.32499993 1.995 3158048
-1.395 -0.32499993 2.0050001 3158032
-1.425 -0.28499994 2.0050001 10510416
-1.415 -0.28499994 1.995 10510416
-1.415 -0.28499994 2.0050001 11567216
-1.415 -0.25499994 1.995 12619904
-1.405 -0.27499995 1.995 10514528
-1.405 -0.25499994 1.995 12624016
-1.425 -0.25499994 2.0350001 13676720
-1.385 -0.32499993 1.995 3158048
-1.375 -0.32499993 1.995 6307872
-1.3649999 -0.32499993 1.995 6307872
-1.3549999 -0.32499993 1.995 4206624
-1.3549999 -0.29499993 1.995 14733536
-1.3649999 -0.29499993 2.0150001 14733536
-1.415 -0.24499995 2.0050001 13676704
-1.415 -0.23499994 2.0050001 13676720
-1.415 -0.24499995 2.0150001 13676704
-1.425 -0.22499993 2.0250001 14725296
-1.405 -0.24499995 1.995 13676704
-1.405 -0.23499994 1.995 13676704
-1.405 -0.22499993 1.995 14725280
-1.425 -0.22499993 2.0350001 13676720
-1.3449999 -0.32499993 1.985 6307872
-1.3449999 -0.31499994 1.975 7360544
-1.3349999 -0.31499994 1.975 7360544
-1.3349999 -0.31499994 1.985 7360544
-1.3449999 -0.30499995 1.965 11567168
-1.3449999 -0.29499993 1.965 12619904
-1.3349999 -0.30499995 1.965 9461808
-1.3449999 -0.30499995 1.975 10514480
-1.3449999 -0.29499993 1.975 12619904
-1.3349999 -0.29499993 1.975 10518640
-1.3349999 -0.29499993 1.985 12624016
-1.3249999 -0.30499995 1.955 10514480
-1.3249999 -0.30499995 1.965 10518576
-1.3249999 -0.29499993 1.955 11567168
-1.3249999 -0.30499995 1.975 9465904
-1.3249999 -0.30499995 1.985 10518592
-1.3249999 -0.29499993 1.975 13680816
-1.3149999 -0.30499995 1.975 10514480
-1.3149999 -0.30499995 1.985 9461808
-1.3349999 -0.28499994 1.9250001 14733536
-1.3449999 -0.28499994 1.9350001 14733536
-1.3349999 -0.28499994 1.9450001 13680848
-1.3049999 -0.29499993 1.965 12624000
-1.3049999 -0.30499995 1.975 11567168
-1.3049999 -0.30499995 1.985 10518576
-1.3049999 -0.29499993 1.975 13676688
-1.295 -0.29499993 1.975 11579568
-1.295 -0.29499993 1.985 13676704
-1.285 -0.31499994 1.985 7360544
-1.275 -0.32499993 1.985 6311984
-1.275 -0.31499994 1.985 8409120
-1.285 -0.30499995 1.985 11567168
-1.285 -0.29499993 1.985 13680800
-1.275 -0.30499995 1.975 10514496
-1.275 -0.30499995 1.985 11567184
-1.275 -0.29499993 1.975 13676672
-1.3049999 -0.28499994 1.955 14737632
-1.3049999 -0.28499994 1.965 14737632
-1.275 -0.28499994 1.965 12632256
-1.3449999 -0.32499993 2.0050001 4206624
-1.3349999 -0.32499993 2.0050001 5259296
-1.3249999 -0.32499993 1.995 4206624
-1.3249999 -0.32499993 2.0050001 5259296
-1.3249999 -0.31499994 1.995 7360544
-1.3149999 -0.32499993 1.995 6311968
-1.3149999 -0.32499993 2.0050001 5259296
-1.3149999 -0.31499994 1.995 8409120
-1.3149999 -0.32499993 2.0150001 4206624
-1.3249999 -0.29499993 2.0050001 14737632
-1.3149999 -0.29499993 1.995 14737632
-1.3049999 -0.32499993 1.995 6311984
-1.3049999 -0.31499994 1.995 8409120
-1.295 -0.32499993 1.995 6311984
-1.295 -0.31499994 1.995 9461808
-1.295 -0.32499993 2.0150001 3158048
-1.3049999 -0.30499995 1.995 12619856
-1.3049999 -0.29499993 1.995 13676688
-1.295 -0.30499995 1.995 12619856
-1.285 -0.32499993 1.995 6311984
-1.275 -0.32499993 1.995 6311984
-1.275 -0.31499994 1.995 8413232
-1.285 -0.32499993 2.0150001 4206624
-1.275 -0.32499993 2.0150001 4206624
-1.285 -0.29499993 2.0050001 13684928
-1.275 -0.30499995 1.995 11567184
-1.275 -0.30499995 2.0050001 13672560
-1.275 -0.29499993 1.995 13676688
-1.275 -0.29499993 2.0050001 13680800
-1.3049999 -0.29499993 2.0350001 13684928
-1.295 -0.30499995 2.0450001 14733520
-1.285 -0.29499993 2.145 1048576
-1.275 -0.28499994 2.135 1048576
-1.275 -0.26499993 2.115 3158048
-1.285 -0.26499993 2.145 1052672
-1.3049999 -0.29499993 2.165 1052672
-1.295 -0.26499993 2.1849999 2105360
-1.275 -0.27499995 2.165 2101248
-1.285 -0.27499995 2.1849999 2105360
-1.285 -0.26499993 2.155 1052688
-1.275 -0.26499993 2.165 2105360
-1.275 -0.25499994 2.165 2105360
-1.275 -0.26499993 2.175 2105360
-1.275 -0.26499993 2.1849999 2105376
-1.3049999 -0.27499995 2.1950002 2105360
-1.3049999 -0.25499994 2.2250001 1056800
-1.295 -0.25499994 2.2250001 4128
-1.275 -0.27499995 2.2050002 3158048
-1.285 -0.26499993 2.2050002 2105360
-1.275 -0.26499993 2.1950002 2105360
-1.275 -0.26499993 2.2050002 2105360
-1.275 -0.25499994 2.2050002 1052688
-1.285 -0.25499994 2.2150002 3158096
-1.275 -0.25499994 2.2150002 8421552
-1.275 -0.24499995 2.2150002 3162192
-1.275 -0.24499995 2.2250001 4210768
-1.415 -0.15499994 2.0050001 7381200
-1.5849999 -0.25499994 2.2850001 7377088
-1.525 -0.17499994 2.2350001 6328512
-1.275 -0.25499994 2.2650001 2105376
-0.53499997 -0.01499994 1.1950001 7368848
-1.255 -0.86499995 1.705 1052672
-1.2449999 -0.86499995 1.705 1052672
-1.2349999 -0.86499995 1.705 1052672
-1.265 -0.87499994 1.715 1052672
-1.265 -0.87499994 1.735 1052672
-1.255 -0.88499993 1.745 1052672
-1.255 -0.86499995 1.715 1052672
-1.255 -0.86499995 1.725 1052672
-1.255 -0.85499996 1.715 4096
-1.265 -0.86499995 1.735 1052672
-1.265 -0.86499995 1.745 1052672
-1.265 -0.85499996 1.745 1052672
-1.255 -0.86499995 1.735 1052672
-1.2449999 -0.87499994 1.715 1052672
-1.2449999 -0.87499994 1.725 1052672
-1.2449999 -0.88499993 1.745 1052672
-1.2349999 -0.87499994 1.735 1052672
-1.2349999 -0.87499994 1.745 4096
-1.2449999 -0.86499995 1.715 1052672
-1.2449999 -0.85499996 1.725 1052672
-1.2349999 -0.86499995 1.715 1052672
-1.2349999 -0.85499996 1.715 1052672
-1.2349999 -0.85499996 1.735 1052672
-1.2349999 -0.85499996 1.745 4096
-1.255 -0.84499997 1.705 1052672
-1.2449999 -0.84499997 1.705 1052672
-1.2449999 -0.83499992 1.6950001 1052672
-1.2449999 -0.83499992 1.705 1052672
-1.2349999 -0.82499993 1.6850001 4096
-1.2449999 -0.82499993 1.6950001 1052672
-1.2449999 -0.82499993 1.705 1052672
-1.2449999 -0.81499994 1.705 4096
-1.255 -0.84499997 1.715 4096
-1.255 -0.83499992 1.715 1052672
-1.255 -0.82499993 1.715 1052672
-1.255 -0.82499993 1.725 1052672
-1.255 -0.81499994 1.725 1052672
-1.265 -0.81499994 1.735 1052672
-1.265 -0.81499994 1.745 1052672
-1.255 -0.82499993 1.735 1052672
-1.255 -0.81499994 1.745 1052672
-1.2449999 -0.84499997 1.715 1052672
-1.2449999 -0.84499997 1.725 1052672
-1.2449999 -0.83499992 1.715 1052672
-1.2349999 -0.83499992 1.715 1052672
-1.2349999 -0.83499992 1.725 1052672
-1.2449999 -0.84499997 1.735 1052672
-1.2449999 -0.83499992 1.745 1052672
-1.2349999 -0.84499997 1.735 1052672
-1.2349999 -0.84499997 1.745 1052672
-1.2449999 -0.82499993 1.715 1052672
-1.2449999 -0.81499994 1.725 4096
-1.2349999 -0.82499993 1.715 1052672
-1.2349999 -0.82499993 1.725 1052672
-1.2349999 -0.81499994 1.715 1052672
-1.2349999 -0.81499994 1.725 1052672
-1.2449999 -0.82499993 1.735 1052672
-1.2449999 -0.82499993 1.745 1052672
-1.2449999 -0.81499994 1.745 4096
-1.2349999 -0.82499993 1.735 1052672
-1.2349999 -0.81499994 1.735 4096
-1.2249999 -0.85499996 1.705 1052672
-1.2149999 -0.86499995 1.705 1052672
-1.2149999 -0.85499996 1.705 4096
-1.2149999 -0.87499994 1.715 1052672
-1.2249999 -0.88499993 1.735 1052672
-1.2249999 -0.88499993 1.745 4096
-1.2249999 -0.87499994 1.735 1052672
-1.2249999 -0.86499995 1.715 1052672
-1.2249999 -0.85499996 1.715 1052672
-1.2149999 -0.86499995 1.725 1052672
-1.2249999 -0.86499995 1.745 1052672
-1.2149999 -0.85499996 1.745 4096
-1.1949999 -0.87499994 1.725 4096
-1.2049999 -0.87499994 1.745 4096
-1.1949999 -0.88499993 1.745 0
-1.1949999 -0.87499994 1.735 4096
-1.1949999 -0.86499995 1.725 4096
-1.1949999 -0.85499996 1.715 1052672
-1.1949999 -0.85499996 1.725 4096
-1.2049999 -0.86499995 1.735 4096
-1.2049999 -0.86499995 1.745 4096
-1.2049999 -0.85499996 1.745 4096
-1.2249999 -0.84499997 1.705 1052672
-1.2149999 -0.84499997 1.705 4096
-1.2149999 -0.83499992 1.6950001 1052672
-1.2049999 -0.84499997 1.705 1052672
-1.1949999 -0.84499997 1.705 1052672
-1.2249999 -0.84499997 1.715 1052672
-1.2249999 -0.84499997 1.725 1052672
-1.2249999 -0.83499992 1.725 1052672
-1.2149999 -0.84499997 1.715 1052672
-1.2249999 -0.84499997 1.745 4096
-1.2249999 -0.83499992 1.735 1052672
-1.2249999 -0.83499992 1.745 4096
-1.2149999 -0.84499997 1.745 1052672
-1.2249999 -0.82499993 1.715 1052672
-1.2249999 -0.82499993 1.725 1052672
-1.2149999 -0.81499994 1.725 1052672
-1.2249999 -0.81499994 1.735 4096
-1.2149999 -0.82499993 1.735 4096
-1.2149999 -0.81499994 1.735 4096
-1.2049999 -0.83499992 1.715 4096
-1.2049999 -0.84499997 1.745 4096
-1.2049999 -0.83499992 1.735 4096
-1.1949999 -0.84499997 1.745 0
-1.1949999 -0.83499992 1.735 4096
-1.1949999 -0.83499992 1.745 4096
-1.2049999 -0.82499993 1.735 4096
-1.1949999 -0.82499993 1.735 0
-1.1949999 -0.82499993 1.745 0
-1.1949999 -0.81499994 1.745 4096
-1.1149999 -0.81499994 1.6550001 1052672
-1.175 -0.85499996 1.6850001 4096
-1.1849999 -0.86499995 1.705 4096
-1.165 -0.85499996 1.6850001 4096
-1.155 -0.86499995 1.705 1052672
-1.155 -0.85499996 1.705 1052672
-1.1849999 -0.88499993 1.735 0
-1.1849999 -0.88499993 1.745 1052672
-1.1849999 -0.87499994 1.745 4096
-1.1849999 -0.86499995 1.715 4096
-1.1849999 -0.86499995 1.725 4096
-1.1849999 -0.85499996 1.725 4096
-1.175 -0.86499995 1.715 4096
-1.175 -0.85499996 1.715 4096
-1.1849999 -0.86499995 1.735 4096
-1.1849999 -0.85499996 1.745 4096
-1.165 -0.87499994 1.715 4096
-1.165 -0.86499995 1.715 1052672
-1.1849999 -0.83499992 1.6850001 4096
-1.1849999 -0.84499997 1.6950001 1052672
-1.155 -0.83499992 1.705 1052672
-1.155 -0.82499993 1.705 1052672
-1.155 -0.81499994 1.705 1052672
-1.175 -0.83499992 1.725 1052672
-1.1849999 -0.84499997 1.735 0
-1.1849999 -0.84499997 1.745 4096
-1.175 -0.83499992 1.735 1052672
-1.1849999 -0.82499993 1.715 4096
-1.1849999 -0.82499993 1.735 4096
-1.175 -0.81499994 1.735 4096
-1.155 -0.83499992 1.715 1052672
-1.165 -0.82499993 1.725 1052672
-1.165 -0.81499994 1.715 4096
-1.155 -0.82499993 1.715 1052672
-1.135 -0.86499995 1.6850001 1052672
-1.135 -0.85499996 1.6850001 1052672
-1.145 -0.85499996 1.6950001 1052672
-1.135 -0.86499995 1.6950001 1052672
-1.135 -0.85499996 1.6950001 1052672
-1.125 -0.86499995 1.6850001 1052672
-1.125 -0.85499996 1.6850001 1052672
-1.1149999 -0.85499996 1.6850001 1052672
-1.125 -0.86499995 1.705 1052672
-1.125 -0.85499996 1.6950001 1052672
-1.125 -0.85499996 1.705 1052672
-1.1149999 -0.86499995 1.6950001 1052672
-1.1149999 -0.86499995 1.705 1052672
-1.1149999 -0.85499996 1.6950001 1052672
-1.1149999 -0.85499996 1.705 1052672
-1.135 -0.86499995 1.715 1052672
-1.125 -0.87499994 1.715 1052672
-1.1149999 -0.88499993 1.745 1052672
-1.125 -0.86499995 1.715 1052672
-1.1149999 -0.86499995 1.735 1052672
-1.145 -0.83499992 1.6850001 4096
-1.135 -0.84499997 1.6850001 1052672
-1.135 -0.83499992 1.6750001 1052672
-1.135 -0.83499992 1.6850001 1052672
-1.135 -0.84499997 1.6950001 1052672
-1.135 -0.84499997 1.705 1052672
-1.135 -0.83499992 1.6950001 1052672
-1.135 -0.83499992 1.705 1052672
-1.135 -0.82499993 1.6750001 1052672
-1.145 -0.82499993 1.6950001 1052672
-1.145 -0.82499993 1.705 1052672
-1.145 -0.81499994 1.6950001 1052672
-1.135 -0.82499993 1.6950001 1052672
-1.135 -0.82499993 1.705 1052672
-1.135 -0.81499994 1.705 1052672
-1.125 -0.84499997 1.6950001 1052672
-1.125 -0.83499992 1.6950001 1052672
-1.125 -0.83499992 1.705 1052672
-1.1149999 -0.84499997 1.6950001 1052672
-1.1149999 -0.84499997 1.705 1052672
-1.125 -0.81499994 1.6850001 1052672
-1.125 -0.82499993 1.6950001 1052672
-1.125 -0.82499993 1.705 1052672
-1.125 -0.81499994 1.6950001 1052672
-1.125 -0.81499994 1.705 1052672
-1.1149999 -0.81499994 1.705 1052672
-1.135 -0.83499992 1.725 1056768
-1.135 -0.82499993 1.715 1052672
-1.135 -0.81499994 1.715 1052672
-1.135 -0.81499994 1.725 1052672
-1.145 -0.81499994 1.745 1052672
-1.135 -0.81499994 1.735 1052672
-1.135 -0.81499994 1.745 1052672
-1.125 -0.84499997 1.715 1052672
-1.125 -0.83499992 1.715 1052672
-1.1149999 -0.84499997 1.715 1052672
-1.1149999 -0.84499997 1.725 1052672
-1.1149999 -0.83499992 1.715 1052672
-1.1149999 -0.83499992 1.725 1056768
-1.1149999 -0.84499997 1.735 1052672
-1.1149999 -0.83499992 1.745 1056768
-1.125 -0.82499993 1.715 1052672
-1.125 -0.82499993 1.725 1052672
-1.125 -0.81499994 1.715 1052672
-1.125 -0.81499994 1.725 1052672
-1.1149999 -0.82499993 1.725 1056768
-1.1149999 -0.81499994 1.725 1052672
-1.125 -0.82499993 1.735 1056768
-1.125 -0.81499994 1.735 1052672
-1.1149999 -0.82499993 1.735 1052688
-1.1149999 -0.82499993 1.745 1052688
-1.1149999 -0.81499994 1.735 1052688
-1.1149999 -0.81499994 1.745 1052688
-1.255 -0.89499992 1.7550001 1052672
-1.2349999 -0.89499992 1.7650001 1052672
-1.2049999 -0.89499992 1.7550001 4096
-1.2349999 -0.88499993 1.7550001 4096
-1.2349999 -0.87499994 1.7750001 4096
-1.2449999 -0.85499996 1.7750001 4096
-1.2349999 -0.85499996 1.7750001 4096
-1.265 -0.86499995 1.8050001 1052672
-1.255 -0.85499996 1.7950001 1052672
-1.2449999 -0.86499995 1.7950001 1052672
-1.255 -0.81499994 1.7550001 1052672
-1.255 -0.81499994 1.7650001 4096
-1.255 -0.81499994 1.7850001 4096
-1.2449999 -0.84499997 1.7650001 1052672
-1.2349999 -0.84499997 1.7550001 4096
-1.2349999 -0.83499992 1.7550001 0
-1.2449999 -0.84499997 1.7850001 1052672
-1.2349999 -0.83499992 1.7750001 1052672
-1.2349999 -0.82499993 1.7650001 4096
-1.2349999 -0.81499994 1.7650001 4096
-1.2449999 -0.81499994 1.7850001 1052672
-1.2349999 -0.82499993 1.7750001 4096
-1.2349999 -0.81499994 1.7750001 4096
-1.2349999 -0.81499994 1.7850001 0
-1.255 -0.84499997 1.8050001 4096
-1.255 -0.83499992 1.825 1052672
-1.255 -0.81499994 1.7950001 4096
-1.265 -0.81499994 1.8150001 4096
-1.2449999 -0.83499992 1.7950001 4096
-1.2449999 -0.81499994 1.8050001 1052672
-1.2349999 -0.81499994 1.7950001 4096
-1.2349999 -0.81499994 1.8050001 4096
-1.2149999 -0.86499995 1.7650001 4096
-1.2149999 -0.85499996 1.7550001 4096
-1.2149999 -0.85499996 1.7650001 4096
-1.2249999 -0.86499995 1.7750001 4096
-1.2049999 -0.86499995 1.7550001 0
-1.2049999 -0.86499995 1.7650001 0
-1.2049999 -0.85499996 1.7550001 0
-1.2049999 -0.85499996 1.7750001 4096
-1.2149999 -0.83499992 1.7650001 4096
-1.2249999 -0.84499997 1.7750001 4096
-1.2249999 -0.83499992 1.7750001 1052672
-1.2149999 -0.82499993 1.7550001 4096
-1.2149999 -0.81499994 1.7550001 4096
-1.2149999 -0.81499994 1.7650001 4096
-1.2149999 -0.81499994 1.7750001 4096
-1.2149999 -0.81499994 1.7850001 4096
-1.2049999 -0.84499997 1.7650001 0
-1.2049999 -0.82499993 1.7550001 4096
-1.2049999 -0.81499994 1.7650001 4096
-1.1949999 -0.82499993 1.7650001 4096
-1.2249999 -0.82499993 1.7950001 1052672
-1.155 -0.92499995 1.825 1052672
-1.155 -0.91499996 1.825 1052672
-1.155 -0.90499991 1.825 1052672
-1.135 -0.93499994 1.825 1052672
-1.135 -0.89499992 1.7750001 1052672
-1.135 -0.89499992 1.7850001 1052672
-1.125 -0.89499992 1.7550001 1052672
-1.145 -0.91499996 1.7950001 1052672
-1.135 -0.91499996 1.7950001 1052672
-1.145 -0.92499995 1.8150001 1052672
-1.145 -0.91499996 1.8150001 1052672
-1.145 -0.91499996 1.825 1052672
-1.135 -0.92499995 1.8150001 1052672
-1.135 -0.91499996 1.8150001 1052672
-1.135 -0.91499996 1.825 1052672
-1.145 -0.89499992 1.7950001 1052672
-1.145 -0.89499992 1.8150001 1052688
-1.145 -0.89499992 1.825 2105376
-1.135 -0.90499991 1.8150001 1052688
-1.135 -0.90499991 1.825 1052688
-1.125 -0.91499996 1.8050001 1052672
-1.125 -0.92499995 1.825 1052672
-1.125 -0.91499996 1.8150001 1052672
-1.125 -0.91499996 1.825 1052672
-1.125 -0.90499991 1.8150001 1052688
-1.175 -0.89499992 1.865 1052688
-1.155 -0.92499995 1.835 1052672
-1.155 -0.91499996 1.835 1052672
-1.165 -0.91499996 1.865 5263456
-1.155 -0.90499991 1.835 1052688
-1.1849999 -0.90499991 1.8850001 6316144
-1.135 -0.94499993 1.845 3162176
-1.145 -0.91499996 1.845 1052672
-1.135 -0.91499996 1.845 1052688
-1.145 -0.90499991 1.835 2105376
-1.155 -0.88499993 1.8150001 1052688
-1.135 -0.87499994 1.7850001 1052672
-1.125 -0.87499994 1.7550001 1052672
-1.125 -0.87499994 1.7650001 1052672
-1.1149999 -0.88499993 1.7550001 1052672
-1.125 -0.86499995 1.7550001 1052688
-1.125 -0.85499996 1.7550001 1052672
-1.125 -0.85499996 1.7650001 1056784
-1.145 -0.88499993 1.8050001 1052672
-1.145 -0.87499994 1.7950001 1052672
-1.145 -0.87499994 1.8050001 4096
-1.135 -0.88499993 1.7950001 1052672
-1.135 -0.88499993 1.8050001 1052688
-1.145 -0.88499993 1.825 1052704
-1.145 -0.86499995 1.8050001 4096
-1.145 -0.85499996 1.8050001 4210768
-1.125 -0.84499997 1.7650001 1052672
-1.125 -0.83499992 1.7550001 1052688
-1.125 -0.83499992 1.7650001 1052688
-1.125 -0.82499993 1.7650001 1052688
-1.1149999 -0.81499994 1.7550001 5263456
-1.145 -0.84499997 1.8050001 1052688
-1.165 -0.88499993 1.835 1052688
-1.2449999 -0.80499995 1.705 4096
-1.255 -0.80499995 1.725 4096
-1.265 -0.80499995 1.735 1052672
-1.265 -0.80499995 1.745 1052672
-1.265 -0.79499996 1.735 1052672
-1.265 -0.79499996 1.745 1052672
-1.255 -0.80499995 1.745 1052672
-1.255 -0.79499996 1.735 1052672
-1.255 -0.79499996 1.745 1052672
-1.255 -0.77499992 1.725 1052672
-1.265 -0.78499997 1.735 1052672
-1.265 -0.77499992 1.745 1052672
-1.255 -0.78499997 1.735 1052672
-1.2349999 -0.80499995 1.725 4096
-1.2449999 -0.80499995 1.745 4096
-1.2449999 -0.79499996 1.735 1052672
-1.2449999 -0.79499996 1.745 1052672
-1.2349999 -0.79499996 1.745 4096
-1.2449999 -0.78499997 1.735 1052672
-1.2449999 -0.77499992 1.735 1052672
-1.2349999 -0.76499993 1.705 1052672
-1.2449999 -0.73499995 1.705 1052672
-1.265 -0.76499993 1.735 1052672
-1.265 -0.76499993 1.745 1052672
-1.265 -0.75499994 1.745 1052672
-1.255 -0.76499993 1.745 1052672
-1.265 -0.73499995 1.745 1052672
-1.255 -0.73499995 1.735 1052672
-1.2449999 -0.75499994 1.745 1052672
-1.2349999 -0.75499994 1.745 4096
-1.2449999 -0.74499995 1.735 1052672
-1.2449999 -0.74499995 1.745 4096
-1.2349999 -0.74499995 1.745 4096
-1.2249999 -0.80499995 1.725 1052672
-1.2249999 -0.79499996 1.725 4096
-1.2149999 -0.80499995 1.715 1052672
-1.2249999 -0.80499995 1.735 4096
-1.2249999 -0.79499996 1.745 4096
-1.2149999 -0.80499995 1.745 4096
-1.2249999 -0.77499992 1.745 4096
-1.2149999 -0.78499997 1.745 4096
-1.2149999 -0.77499992 1.745 4096
-1.1949999 -0.80499995 1.745 4096
-1.1949999 -0.77499992 1.725 4096
-1.2049999 -0.78499997 1.745 1052672
-1.2249999 -0.75499994 1.745 4096
-1.2249999 -0.74499995 1.735 4096
-1.2149999 -0.74499995 1.745 0
-1.1949999 -0.76499993 1.725 4096
-1.2049999 -0.76499993 1.735 4096
-1.2049999 -0.76499993 1.745 4096
-1.2049999 -0.75499994 1.745 4096
-1.2049999 -0.74499995 1.735 4096
-1.2049999 -0.74499995 1.745 4096
-1.1949999 -0.74499995 1.735 1052672
-1.1949999 -0.73499995 1.745 1052672
-1.2449999 -0.72499996 1.715 1052672
-1.2349999 -0.65499991 1.745 0
-1.2049999 -0.72499996 1.745 1052672
-1.1949999 -0.71499991 1.745 1052672
-1.2249999 -0.65499991 1.745 1052672
-1.1949999 -0.68499994 1.725 1052672
-1.2049999 -0.68499994 1.745 1052672
-1.1949999 -0.68499994 1.735 1052688
-1.1949999 -0.67499995 1.745 2105360
-1.2049999 -0.66499996 1.745 2105360
-1.2049999 -0.65499991 1.745 2105360
-1.1949999 -0.66499996 1.735 2105360
-1.1949999 -0.66499996 1.745 2105360
-1.1949999 -0.65499991 1.735 2105360
-1.1949999 -0.65499991 1.745 2105360
-1.1849999 -0.80499995 1.6950001 4096
-1.155 -0.78499997 1.705 1052672
-1.175 -0.80499995 1.725 4096
-1.1849999 -0.80499995 1.735 4096
-1.1849999 -0.79499996 1.745 1052672
-1.1849999 -0.77499992 1.745 1052672
-1.175 -0.78499997 1.735 1052672
-1.165 -0.77499992 1.715 1052672
-1.165 -0.77499992 1.725 1052672
-1.155 -0.78499997 1.715 1052672
-1.155 -0.78499997 1.725 1056768
-1.155 -0.77499992 1.715 1056784
-1.155 -0.77499992 1.725 1056768
-1.165 -0.78499997 1.735 1052688
-1.155 -0.78499997 1.735 1056784
-1.155 -0.78499997 1.745 1056784
-1.155 -0.77499992 1.735 1052672
-1.155 -0.76499993 1.705 1052672
-1.155 -0.75499994 1.705 1052672
-1.175 -0.75499994 1.725 1052672
-1.1849999 -0.76499993 1.745 4096
-1.1849999 -0.75499994 1.745 1052688
-1.175 -0.75499994 1.735 1056784
-1.175 -0.75499994 1.745 1056768
-1.175 -0.73499995 1.725 1052672
-1.175 -0.74499995 1.735 2105360
-1.165 -0.75499994 1.725 1052688
-1.155 -0.76499993 1.715 1052672
-1.155 -0.75499994 1.715 1056784
-1.155 -0.75499994 1.725 1052688
-1.165 -0.75499994 1.735 1056784
-1.165 -0.75499994 1.745 1052688
-1.155 -0.76499993 1.735 1052672
-1.155 -0.75499994 1.735 1052688
-1.155 -0.75499994 1.745 1056784
-1.165 -0.73499995 1.725 2105360
-1.155 -0.73499995 1.725 2105360
-1.165 -0.74499995 1.735 2105360
-1.165 -0.74499995 1.745 2105360
-1.165 -0.73499995 1.735 2105360
-1.155 -0.74499995 1.745 2105360
-1.155 -0.73499995 1.745 2105360
-1.135 -0.79499996 1.6850001 1052672
-1.145 -0.80499995 1.705 1052672
-1.145 -0.79499996 1.6950001 1052672
-1.145 -0.79499996 1.705 1052672
-1.135 -0.80499995 1.705 1052672
-1.135 -0.79499996 1.6950001 1052672
-1.135 -0.78499997 1.6750001 1052672
-1.145 -0.78499997 1.6950001 1052672
-1.145 -0.78499997 1.705 1052672
-1.145 -0.77499992 1.6950001 1052672
-1.145 -0.77499992 1.705 1052672
-1.135 -0.78499997 1.6950001 1052672
-1.135 -0.78499997 1.705 1052672
-1.125 -0.80499995 1.6850001 1052672
-1.125 -0.80499995 1.6950001 1052672
-1.125 -0.80499995 1.705 1052672
-1.125 -0.78499997 1.6750001 1052672
-1.1149999 -0.78499997 1.705 1056768
-1.145 -0.80499995 1.715 1052672
-1.145 -0.80499995 1.725 1052672
-1.145 -0.79499996 1.725 1056768
-1.135 -0.79499996 1.715 1052672
-1.135 -0.79499996 1.725 1052672
-1.145 -0.80499995 1.735 1052672
-1.145 -0.79499996 1.745 1052672
-1.135 -0.80499995 1.735 1056784
-1.135 -0.80499995 1.745 1052672
-1.135 -0.79499996 1.745 1052672
-1.145 -0.78499997 1.715 1052672
-1.145 -0.78499997 1.725 1056768
-1.145 -0.77499992 1.725 1056784
-1.135 -0.78499997 1.715 1052672
-1.135 -0.78499997 1.725 1052672
-1.145 -0.78499997 1.735 1056784
-1.145 -0.78499997 1.745 1056768
-1.145 -0.77499992 1.745 1056768
-1.135 -0.77499992 1.735 1056784
-1.135 -0.77499992 1.745 1056784
-1.125 -0.79499996 1.715 1052672
-1.1149999 -0.80499995 1.725 1052672
-1.1149999 -0.79499996 1.725 1052688
-1.125 -0.80499995 1.735 1052688
-1.125 -0.79499996 1.735 1056784
-1.1149999 -0.80499995 1.735 1052688
-1.1149999 -0.79499996 1.735 1056784
-1.1149999 -0.79499996 1.745 1052688
-1.125 -0.78499997 1.715 1052672
-1.125 -0.78499997 1.735 1052688
-1.1149999 -0.78499997 1.745 2105360
-1.145 -0.76499993 1.705 1052672
-1.145 -0.75499994 1.705 1052672
-1.145 -0.76499993 1.725 1052672
-1.145 -0.75499994 1.715 1052672
-1.145 -0.75499994 1.725 1052672
-1.135 -0.75499994 1.725 1052672
-1.145 -0.76499993 1.735 1052672
-1.145 -0.75499994 1.735 1052672
-1.145 -0.75499994 1.745 1052672
-1.135 -0.76499993 1.735 1056768
-1.135 -0.76499993 1.745 1052672
-1.135 -0.75499994 1.735 1052672
-1.135 -0.74499995 1.725 1052688
-1.135 -0.73499995 1.715 1056784
-1.145 -0.74499995 1.735 1052688
-1.145 -0.73499995 1.735 2105360
-1.135 -0.74499995 1.745 1056768
-1.135 -0.73499995 1.735 1056768
-1.135 -0.73499995 1.745 1056784
-1.125 -0.73499995 1.715 1056784
-1.155 -0.71499991 1.705 1056784
-1.175 -0.72499996 1.715 1052672
-1.175 -0.71499991 1.715 1056784
-1.175 -0.71499991 1.725 1052688
-1.1849999 -0.71499991 1.735 1052672
-1.1849999 -0.71499991 1.745 1056784
-1.175 -0.71499991 1.735 1056784
-1.175 -0.71499991 1.745 1052688
-1.1849999 -0.70499992 1.745 1056784
-1.1849999 -0.69499993 1.735 2105360
-1.1849999 -0.69499993 1.745 1056784
-1.175 -0.69499993 1.735 2105360
-1.165 -0.72499996 1.715 2105360
-1.165 -0.72499996 1.725 1052672
-1.155 -0.72499996 1.715 1056784
-1.155 -0.72499996 1.725 1056784
-1.165 -0.72499996 1.735 1052672
-1.165 -0.72499996 1.745 1052672
-1.165 -0.71499991 1.735 1052672
-1.165 -0.71499991 1.745 1052672
-1.155 -0.72499996 1.745 1052672
-1.155 -0.71499991 1.745 1052672
-1.165 -0.70499992 1.745 1056784
-1.155 -0.70499992 1.735 1056784
-1.155 -0.70499992 1.745 1052688
-1.155 -0.69499993 1.735 2105360
-1.1849999 -0.68499994 1.735 2105360
-1.1849999 -0.67499995 1.735 2105360
-1.1849999 -0.67499995 1.745 2105360
-1.175 -0.68499994 1.735 1056784
-1.175 -0.68499994 1.745 2105360
-1.175 -0.67499995 1.735 2105360
-1.1849999 -0.66499996 1.725 2105360
-1.175 -0.66499996 1.725 2105360
-1.1849999 -0.66499996 1.735 2105360
-1.165 -0.68499994 1.745 2105360
-1.165 -0.67499995 1.745 2105360
-1.155 -0.66499996 1.725 2105360
-1.155 -0.66499996 1.735 2105360
-1.145 -0.71499991 1.6950001 2105360
-1.145 -0.72499996 1.745 1052672
-1.145 -0.71499991 1.745 1052672
-1.125 -0.72499996 1.715 2105360
-1.1149999 -0.70499992 1.745 1052688
-1.265 -0.79499996 1.7650001 1052672
-1.255 -0.80499995 1.7550001 1052672
-1.265 -0.78499997 1.7550001 1052672
-1.265 -0.78499997 1.7650001 1052672
-1.265 -0.77499992 1.7550001 1052672
-1.265 -0.77499992 1.7650001 1052672
-1.255 -0.77499992 1.7550001 1052672
-1.265 -0.78499997 1.7750001 1052672
-1.265 -0.77499992 1.7750001 1052672
-1.255 -0.78499997 1.7750001 4096
-1.255 -0.77499992 1.7750001 4096
-1.2449999 -0.80499995 1.7650001 4096
-1.2449999 -0.79499996 1.7550001 1052672
-1.2349999 -0.79499996 1.7550001 4096
-1.2449999 -0.79499996 1.7750001 4096
-1.2349999 -0.80499995 1.7750001 0
-1.2449999 -0.78499997 1.7550001 1052672
-1.2449999 -0.77499992 1.7650001 1052672
-1.2349999 -0.78499997 1.7550001 1052672
-1.2349999 -0.77499992 1.7550001 1052672
-1.2449999 -0.77499992 1.7750001 4096
-1.2349999 -0.77499992 1.7750001 4096
-1.2349999 -0.77499992 1.8050001 1052672
-1.265 -0.76499993 1.7550001 1052672
-1.265 -0.76499993 1.7650001 1052672
-1.265 -0.75499994 1.7650001 1052672
-1.255 -0.76499993 1.7650001 4096
-1.265 -0.76499993 1.7750001 1052672
-1.255 -0.75499994 1.7850001 4096
-1.265 -0.74499995 1.7550001 1052672
-1.265 -0.74499995 1.7650001 1052672
-1.265 -0.73499995 1.7550001 1052672
-1.265 -0.73499995 1.7650001 1052672
-1.255 -0.74499995 1.7550001 1052672
-1.255 -0.74499995 1.7650001 1052672
-1.265 -0.74499995 1.7750001 1052672
-1.265 -0.74499995 1.7850001 1052672
-1.265 -0.73499995 1.7750001 1052672
-1.265 -0.73499995 1.7850001 4096
-1.255 -0.74499995 1.7850001 0
-1.255 -0.73499995 1.7750001 4096
-1.255 -0.73499995 1.7850001 0
-1.2449999 -0.76499993 1.7550001 4096
-1.2449999 -0.75499994 1.7550001 4096
-1.2349999 -0.76499993 1.7650001 4096
-1.2349999 -0.75499994 1.7550001 4096
-1.2349999 -0.75499994 1.7650001 4096
-1.2449999 -0.75499994 1.7750001 4096
-1.2349999 -0.76499993 1.7750001 4096
-1.2349999 -0.76499993 1.7850001 1052672
-1.2349999 -0.75499994 1.7750001 0
-1.2449999 -0.74499995 1.7550001 4096
-1.2449999 -0.74499995 1.7650001 4096
-1.2349999 -0.74499995 1.7550001 4096
-1.2349999 -0.73499995 1.7650001 0
-1.2449999 -0.74499995 1.7750001 4096
-1.2449999 -0.74499995 1.7850001 4096
-1.2349999 -0.74499995 1.7850001 1052672
-1.2349999 -0.73499995 1.7750001 1052672
-1.2349999 -0.73499995 1.7850001 4096
-1.265 -0.73499995 1.7950001 4096
-1.255 -0.73499995 1.7950001 4096
-1.2349999 -0.73499995 1.7950001 1052672
-1.2249999 -0.80499995 1.7550001 4096
-1.2149999 -0.79499996 1.7650001 4096
-1.2249999 -0.80499995 1.7850001 4096
-1.2249999 -0.78499997 1.7550001 4096
-1.2249999 -0.77499992 1.7550001 4096
-1.2249999 -0.77499992 1.7650001 4096
-1.2149999 -0.78499997 1.7550001 4096
-1.2149999 -0.78499997 1.7650001 4096
-1.2149999 -0.77499992 1.7550001 4096
-1.2149999 -0.77499992 1.7650001 4096
-1.2149999 -0.78499997 1.7750001 4096
-1.1949999 -0.80499995 1.7650001 4096
-1.2049999 -0.79499996 1.7750001 4096
-1.2049999 -0.77499992 1.7550001 1052672
-1.2049999 -0.77499992 1.7650001 4096
-1.1949999 -0.77499992 1.7550001 4096
-1.2249999 -0.77499992 1.7950001 1052672
-1.2249999 -0.75499994 1.7550001 0
-1.2249999 -0.75499994 1.7650001 1052672
-1.2149999 -0.76499993 1.7550001 0
-1.2149999 -0.76499993 1.7750001 1052672
-1.2249999 -0.74499995 1.7550001 4096
-1.2249999 -0.74499995 1.7650001 4096
-1.2149999 -0.74499995 1.7650001 1052672
-1.2249999 -0.74499995 1.7850001 1052672
-1.2249999 -0.73499995 1.7850001 1052672
-1.2049999 -0.76499993 1.7550001 1052672
-1.2049999 -0.76499993 1.7650001 1052672
-1.1949999 -0.76499993 1.7550001 1052672
-1.1949999 -0.76499993 1.7650001 1052672
-1.1949999 -0.75499994 1.7550001 1052672
-1.2049999 -0.74499995 1.7550001 1052672
-1.2049999 -0.73499995 1.7550001 1052672
-1.1949999 -0.73499995 1.825 1056784
-1.2049999 -0.75499994 1.865 1052672
-1.1949999 -0.75499994 1.855 1052672
-1.1949999 -0.75499994 1.865 1052688
-1.1949999 -0.74499995 1.845 1052672
-1.2049999 -0.74499995 1.865 1052672
-1.2049999 -0.73499995 1.855 1052672
-1.2049999 -0.73499995 1.865 1052672
-1.2149999 -0.75499994 1.875 1052672
-1.2149999 -0.74499995 1.875 1052672
-1.2149999 -0.74499995 1.8850001 2105360
-1.2049999 -0.75499994 1.875 1052688
-1.2049999 -0.74499995 1.875 1052688
-1.2049999 -0.73499995 1.875 1052672
-1.1949999 -0.74499995 1.875 1052688
-1.265 -0.72499996 1.7550001 1052672
-1.265 -0.72499996 1.7650001 4096
-1.265 -0.71499991 1.7650001 1052672
-1.255 -0.72499996 1.7550001 1052672
-1.265 -0.72499996 1.7750001 4096
-1.255 -0.72499996 1.7750001 4096
-1.255 -0.71499991 1.7750001 4096
-1.255 -0.70499992 1.7650001 4096
-1.255 -0.69499993 1.7650001 4096
-1.265 -0.70499992 1.7750001 4096
-1.265 -0.70499992 1.7850001 4096
-1.265 -0.69499993 1.7750001 0
-1.265 -0.69499993 1.7850001 0
-1.255 -0.70499992 1.7850001 4096
-1.255 -0.69499993 1.7850001 0
-1.2449999 -0.72499996 1.7750001 0
-1.2449999 -0.72499996 1.7850001 0
-1.2449999 -0.71499991 1.7750001 0
-1.2349999 -0.72499996 1.7850001 4096
-1.2349999 -0.71499991 1.7750001 0
-1.2449999 -0.70499992 1.7550001 0
-1.2449999 -0.70499992 1.7650001 0
-1.2449999 -0.69499993 1.7650001 0
-1.2349999 -0.70499992 1.7550001 4096
-1.2349999 -0.70499992 1.7650001 0
-1.2449999 -0.70499992 1.7750001 0
-1.2449999 -0.70499992 1.7850001 4096
-1.2449999 -0.69499993 1.7850001 0
-1.265 -0.71499991 1.8150001 4096
-1.265 -0.70499992 1.8050001 0
-1.265 -0.70499992 1.8150001 0
-1.2449999 -0.72499996 1.7950001 4096
-1.2449999 -0.71499991 1.7950001 4096
-1.2449999 -0.70499992 1.7950001 4096
-1.265 -0.68499994 1.7650001 4096
-1.265 -0.67499995 1.7650001 0
-1.265 -0.68499994 1.7850001 0
-1.255 -0.68499994 1.7850001 0
-1.255 -0.67499995 1.7850001 0
-1.255 -0.66499996 1.7650001 0
-1.265 -0.66499996 1.7750001 0
-1.265 -0.65499991 1.7850001 0
-1.255 -0.65499991 1.7850001 0
-1.2349999 -0.67499995 1.7650001 0
-1.2449999 -0.68499994 1.7750001 0
-1.2449999 -0.68499994 1.7850001 0
-1.2449999 -0.67499995 1.7750001 0
-1.2449999 -0.67499995 1.7850001 0
-1.2349999 -0.68499994 1.7750001 0
-1.2349999 -0.67499995 1.7750001 1052672
-1.2449999 -0.66499996 1.7650001 0
-1.2449999 -0.65499991 1.7550001 0
-1.2449999 -0.65499991 1.7650001 0
-1.2349999 -0.65499991 1.7550001 0
-1.2349999 -0.65499991 1.825 2105360
-1.2249999 -0.72499996 1.7650001 4096
-1.2149999 -0.72499996 1.7650001 1052672
-1.2249999 -0.71499991 1.7750001 1052672
-1.2149999 -0.72499996 1.7750001 1052672
-1.2249999 -0.70499992 1.7650001 4096
-1.2249999 -0.69499993 1.7650001 4096
-1.2149999 -0.70499992 1.7550001 1052672
-1.2149999 -0.69499993 1.7550001 1052672
-1.2049999 -0.72499996 1.7550001 4096
-1.1949999 -0.71499991 1.7550001 1056784
-1.1949999 -0.71499991 1.7650001 1056784
-1.2049999 -0.70499992 1.7550001 1052672
-1.1949999 -0.70499992 1.8150001 1056784
-1.2249999 -0.68499994 1.7650001 1052672
-1.2249999 -0.67499995 1.7650001 1052672
-1.2149999 -0.67499995 1.7750001 2105360
-1.2149999 -0.67499995 1.7850001 2105360
-1.2249999 -0.66499996 1.7550001 1052672
-1.2249999 -0.65499991 1.7550001 1052688
-1.2149999 -0.66499996 1.7550001 1052672
-1.2149999 -0.65499991 1.7550001 2105376
-1.2149999 -0.65499991 1.7650001 2105376
-1.2149999 -0.66499996 1.7750001 2105360
-1.2149999 -0.66499996 1.7850001 2105360
-1.2149999 -0.65499991 1.7750001 2105360
-1.2149999 -0.65499991 1.7850001 2105360
-1.2049999 -0.68499994 1.7550001 2105360
-1.2049999 -0.67499995 1.7550001 1052688
-1.2049999 -0.67499995 1.7650001 2105360
-1.1949999 -0.68499994 1.7650001 2105360
-1.1949999 -0.67499995 1.7650001 2105360
-1.2049999 -0.68499994 1.7850001 2105360
-1.2049999 -0.67499995 1.7750001 2105360
-1.2049999 -0.67499995 1.7850001 2105360
-1.2049999 -0.66499996 1.7550001 2105360
-1.2049999 -0.66499996 1.7750001 2105360
-1.2049999 -0.66499996 1.7850001 2105360
-1.2049999 -0.65499991 1.7750001 2105376
-1.2049999 -0.65499991 1.7850001 2105360
-1.1949999 -0.66499996 1.7750001 2105360
-1.1949999 -0.66499996 1.7850001 2105360
-1.2249999 -0.66499996 1.7950001 2105360
-1.2249999 -0.65499991 1.8050001 2105360
-1.2149999 -0.65499991 1.7950001 2105360
-1.2249999 -0.66499996 1.8150001 2105360
-1.2249999 -0.65499991 1.8150001 2105360
-1.2249999 -0.65499991 1.825 2105360
-1.2149999 -0.66499996 1.8150001 2105360
-1.2149999 -0.66499996 1.825 2105360
-1.2049999 -0.68499994 1.7950001 2105360
-1.2049999 -0.67499995 1.825 1052672
-1.1949999 -0.68499994 1.825 1052688
-1.2049999 -0.66499996 1.7950001 2105360
-1.2049999 -0.66499996 1.8050001 2105360
-1.2049999 -0.65499991 1.7950001 2105360
-1.1949999 -0.66499996 1.7950001 2105360
-1.1949999 -0.66499996 1.8050001 1056784
-1.2349999 -0.69499993 1.8950001 1052688
-1.2149999 -0.72499996 1.865 1052672
-1.2149999 -0.69499993 1.845 1052672
-1.2149999 -0.70499992 1.855 1052672
-1.2149999 -0.70499992 1.865 1052672
-1.2149999 -0.69499993 1.855 1052672
-1.2149999 -0.69499993 1.865 1052672
-1.2049999 -0.72499996 1.845 1052672
-1.2049999 -0.71499991 1.845 1052672
-1.1949999 -0.72499996 1.835 1052672
-1.1949999 -0.71499991 1.835 1052688
-1.2049999 -0.72499996 1.865 1052672
-1.2049999 -0.71499991 1.855 1052672
-1.2049999 -0.70499992 1.835 1052688
-1.2049999 -0.70499992 1.845 1052672
-1.2049999 -0.69499993 1.835 1052672
-1.2249999 -0.72499996 1.8850001 1052672
-1.2149999 -0.72499996 1.875 1052672
-1.2149999 -0.71499991 1.875 1052672
-1.2249999 -0.72499996 1.8950001 1052672
-1.2249999 -0.71499991 1.8950001 1052688
-1.2149999 -0.70499992 1.875 1052688
-1.2149999 -0.70499992 1.8850001 1052688
-1.2149999 -0.69499993 1.875 4096
-1.2149999 -0.69499993 1.8850001 1052688
-1.2249999 -0.69499993 1.8950001 1052672
-1.2149999 -0.68499994 1.845 1052688
-1.2149999 -0.67499995 1.845 1052672
-1.2249999 -0.68499994 1.865 1052688
-1.2249999 -0.67499995 1.865 1052672
-1.2149999 -0.68499994 1.855 0
-1.2149999 -0.67499995 1.865 1052672
-1.2249999 -0.66499996 1.835 2105360
-1.2249999 -0.66499996 1.845 0
-1.2249999 -0.65499991 1.835 1052672
-1.2149999 -0.66499996 1.835 1052672
-1.2149999 -0.66499996 1.845 4096
-1.2149999 -0.65499991 1.835 0
-1.2149999 -0.65499991 1.845 1052688
-1.2149999 -0.66499996 1.855 1052672
-1.2149999 -0.65499991 1.855 2105376
-1.2049999 -0.67499995 1.835 1052672
-1.2049999 -0.66499996 1.855 1052688
-1.2049999 -0.65499991 1.855 2105376
-1.2249999 -0.68499994 1.8850001 1052672
