# .PCD v0.7 - Point Cloud Data file format
VERSION 0.7
FIELDS x y z rgba
SIZE 4 4 4 4
TYPE F F F U
COUNT 1 1 1 1
WIDTH 1370
HEIGHT 1
VIEWPOINT 0 0 0 1 0 0 0
POINTS 1370
DATA ascii
-1.8549999 1.9250001 5.3850002 9478320
-1.8649999 1.9450001 5.3650002 9478320
-1.8549999 1.9350001 5.375 9478320
-1.8449999 1.9250001 5.395 9478320
-1.8349999 1.9150001 5.4050002 9478320
-1.8449999 1.9350001 5.395 9478320
-1.8349999 1.9450001 5.4050002 9478320
-1.8349999 1.9350001 5.415 9478320
-1.8649999 1.955 5.3650002 9478320
-1.8549999 1.955 5.3850002 9478320
-1.8549999 1.965 5.375 9478320
-1.8649999 1.975 5.3650002 9478320
-1.8649999 1.985 5.3650002 9478304
-1.8549999 1.985 5.3650002 9478320
-1.8549999 1.975 5.375 9478320
-1.8449999 1.955 5.395 9478320
-1.8449999 1.965 5.395 9478320
-1.8349999 1.955 5.4050002 9478320
-1.8449999 1.985 5.395 9478304
-1.8349999 1.975 5.395 9478304
-1.8349999 1.985 5.395 9478304
-1.905 1.995 5.3150001 9478304
-1.895 1.995 5.3250003 9478320
-1.895 2.0050001 5.3250003 9478304
-1.905 2.0150001 5.3150001 9478304
-1.895 2.0150001 5.3250003 9478304
-1.885 1.995 5.3450003 9478304
-1.885 2.0050001 5.3450003 9478304
-1.885 2.0250001 5.335 9478304
-1.875 2.0250001 5.3450003 9474208
-1.905 2.0550001 5.3049998 8425616
-1.905 2.0350001 5.3250003 9478304
-1.905 2.0450001 5.3150001 9474208
-1.895 2.0350001 5.3250003 9474208
-1.895 2.0450001 5.3250003 8425632
-1.895 2.0650001 5.3250003 8425616
-1.885 2.0350001 5.335 9474208
-1.875 2.0350001 5.3450003 8425632
-1.885 2.0550001 5.335 8425616
-1.885 2.0650001 5.335 8425616
-1.875 2.0550001 5.3450003 8425616
-1.875 2.0050001 5.355 9478304
-1.875 2.0150001 5.355 9478304
-1.8649999 1.995 5.355 9478304
-1.8549999 2.0050001 5.3650002 9478304
-1.8649999 2.0150001 5.355 9478304
-1.8649999 2.0250001 5.355 8425632
-1.8549999 2.0150001 5.3650002 9474208
-1.8449999 1.995 5.3850002 9478304
-1.8449999 2.0050001 5.3850002 9478304
-1.8449999 2.0250001 5.3850002 9474208
-1.8349999 2.0050001 5.4050002 9478304
-1.8349999 2.0150001 5.4050002 9478304
-1.8649999 2.0450001 5.355 8425632
-1.8549999 2.0350001 5.375 8425632
-1.8649999 2.0550001 5.355 8425616
-1.8549999 2.0550001 5.375 8425616
-1.8449999 2.0450001 5.395 8425632
-1.8349999 2.0350001 5.4050002 9474208
-1.8349999 2.0450001 5.4050002 8425616
-1.8449999 2.0650001 5.4050002 8425616
-1.8349999 2.0650001 5.415 8421520
-1.8249999 1.9150001 5.415 9478320
-1.8149999 1.9250001 5.4250002 9478320
-1.8249999 1.9350001 5.4250002 9478320
-1.8249999 1.9450001 5.415 9478320
-1.8249999 1.965 5.415 9478320
-1.8149999 1.955 5.4250002 9478320
-1.8149999 1.965 5.4250002 9478304
-1.8249999 1.975 5.415 9478320
-1.8249999 1.995 5.415 9478304
-1.8249999 2.0050001 5.415 9478304
-1.8149999 1.995 5.4250002 9478304
-1.8249999 2.0250001 5.415 9474208
-1.8149999 2.0250001 5.4250002 9474208
-1.8249999 2.0450001 5.4050002 8425616
-1.8249999 2.0350001 5.415 9474208
-1.8149999 2.0350001 5.4250002 9474208
-1.8149999 2.0550001 5.4250002 8425616
-1.875 2.145 5.165 10531008
-1.875 2.135 5.1849999 9478320
-1.8649999 2.125 5.1849999 9478320
-1.8549999 2.145 5.165 9478320
-1.8449999 2.125 5.1849999 10531008
-1.895 2.085 5.2049999 15790320
-1.895 2.105 5.2049999 8421520
-1.895 2.095 5.2249999 15790320
-1.885 2.095 5.2350001 7372944
-1.895 2.145 5.2049999 9478320
-1.885 2.125 5.2249999 10526896
-1.895 2.115 5.2350001 9478304
-1.885 2.125 5.2350001 9478320
-1.885 2.125 5.2649999 10530992
-1.8549999 2.075 5.2150002 15790320
-1.8549999 2.085 5.2350001 12636368
-1.8649999 2.105 5.2449999 8421520
-1.8549999 2.105 5.2550001 9478320
-1.8349999 2.085 5.2350001 8421520
-1.8449999 2.075 5.2550001 15790320
-1.8349999 2.085 5.2649999 15790320
-1.8449999 2.105 5.2649999 10526896
-1.8349999 2.105 5.2649999 9478320
-1.8449999 2.125 5.2249999 9478320
-1.8349999 2.125 5.2350001 9478320
-1.8649999 2.155 5.2249999 10531008
-1.795 2.105 5.1150002 10531008
-1.785 2.115 5.1350002 10531008
-1.785 2.125 5.1350002 10531008
-1.775 2.135 5.1350002 10531008
-1.755 2.115 5.1350002 10531008
-1.785 2.125 5.1550002 10531008
-1.775 2.125 5.1849999 10531008
-1.8249999 2.085 5.2449999 8425616
-1.8149999 2.095 5.2649999 10526896
-1.8149999 2.105 5.2550001 9478320
-1.8049999 2.095 5.2649999 10526896
-1.8049999 2.105 5.2649999 9478320
-1.8149999 2.125 5.2150002 10531008
-1.8249999 2.135 5.2049999 10531008
-1.8149999 2.135 5.2150002 10531008
-1.795 2.125 5.1950002 10531008
-1.8049999 2.115 5.2150002 10531008
-1.8149999 2.115 5.2449999 9478320
-1.8249999 2.125 5.2550001 9478320
-1.795 2.125 5.2350001 10531008
-1.795 2.115 5.2550001 9478320
-1.785 2.105 5.2550001 9478320
-1.775 2.105 5.2550001 9478320
-1.765 2.105 5.2649999 9478320
-1.765 2.125 5.1950002 10531008
-1.755 2.125 5.2049999 10531008
-1.765 2.125 5.2249999 10531008
-1.785 2.115 5.2550001 9482432
-1.785 2.135 5.2449999 10531008
-1.765 2.115 5.2449999 10531008
-1.885 2.135 5.2750001 10526896
-1.885 2.145 5.2849998 9478320
-1.8649999 2.135 5.2750001 10530992
-1.8249999 2.085 5.2750001 10530992
-1.8149999 2.075 5.2950001 15790320
-1.8149999 2.095 5.2849998 8421520
-1.795 2.075 5.2950001 15790320
-1.795 2.105 5.2750001 9478320
-1.795 2.095 5.2950001 8425616
-1.795 2.085 5.3150001 10526896
-1.785 2.105 5.2849998 9478320
-1.765 2.105 5.2950001 9478320
-1.785 2.085 5.3450003 15790320
-1.785 2.095 5.3150001 9478320
-1.785 2.095 5.335 8421520
-1.785 2.105 5.335 9478320
-1.755 2.115 5.2849998 9482432
-1.755 2.115 5.3049998 9478320
-1.775 2.115 5.3450003 9478320
-1.755 2.125 5.3250003 9478320
-1.755 2.115 5.3450003 9478320
-1.775 2.085 5.355 15790320
-1.775 2.105 5.355 9474208
-1.765 2.095 5.3650002 8421520
-1.765 2.105 5.355 9478320
-1.755 2.095 5.375 8421520
-1.755 2.115 5.3850002 10526896
-1.7449999 2.115 5.125 10531008
-1.7349999 2.115 5.145 10531008
-1.7149999 2.115 5.1150002 10531008
-1.7149999 2.115 5.145 10531008
-1.675 2.105 5.1849999 10531008
-1.6949999 2.115 5.1150002 10531008
-1.7049999 2.135 5.1849999 10531008
-1.6849999 2.115 5.165 10531008
-1.675 2.115 5.1750002 10531008
-1.7149999 2.105 5.2249999 9482432
-1.7449999 2.125 5.2049999 10531008
-1.7449999 2.125 5.2249999 9482432
-1.7349999 2.125 5.2249999 10531008
-1.7249999 2.125 5.2049999 10531008
-1.7149999 2.125 5.2049999 10531008
-1.7249999 2.135 5.1950002 10531008
-1.7349999 2.115 5.2350001 10531008
-1.6949999 2.105 5.1950002 10531008
-1.6949999 2.105 5.2049999 10531008
-1.7049999 2.115 5.1950002 10531008
-1.6949999 2.115 5.2550001 9482432
-1.645 2.105 5.1849999 10531008
-1.635 2.115 5.1350002 10531008
-1.5949999 2.105 5.1150002 10531008
-1.6149999 2.095 5.165 10531008
-1.6149999 2.105 5.1550002 10531008
-1.5949999 2.095 5.165 10531008
-1.625 2.115 5.1150002 10531008
-1.625 2.115 5.145 10531008
-1.625 2.115 5.165 10531008
-1.645 2.095 5.2049999 10531008
-1.635 2.105 5.2150002 9482432
-1.655 2.125 5.2449999 10531008
-1.665 2.145 5.2449999 10531008
-1.6049999 2.105 5.2249999 10531008
-1.6149999 2.105 5.2550001 10531008
-1.625 2.115 5.2449999 10531008
-1.7349999 2.115 5.2849998 9482432
-1.7249999 2.125 5.2950001 9482432
-1.7149999 2.125 5.3049998 9482432
-1.7349999 2.115 5.3250003 9482432
-1.7449999 2.115 5.3450003 9478320
-1.7249999 2.115 5.3250003 9478320
-1.6949999 2.125 5.3049998 9482432
-1.675 2.125 5.2750001 10531008
-1.6849999 2.115 5.2950001 9482432
-1.7049999 2.115 5.3250003 9482432
-1.6949999 2.115 5.3250003 9482432
-1.675 2.115 5.3150001 9482432
-1.6849999 2.115 5.3450003 9478320
-1.675 2.115 5.3450003 9478320
-1.7449999 2.085 5.395 15790320
-1.7349999 2.085 5.4050002 7372928
-1.7449999 2.105 5.395 9478320
-1.7349999 2.105 5.395 10526896
-1.7249999 2.085 5.4250002 15790320
-1.7249999 2.095 5.415 8421520
-1.7249999 2.105 5.415 9478320
-1.7349999 2.125 5.3650002 9478320
-1.7149999 2.115 5.355 9478320
-1.7449999 2.115 5.395 9478320
-1.7149999 2.115 5.395 9478320
-1.7049999 2.095 5.4250002 9478320
-1.7049999 2.105 5.415 9478320
-1.675 2.105 5.4050002 9478320
-1.7049999 2.115 5.355 9478320
-1.6949999 2.115 5.3850002 9478320
-1.6849999 2.115 5.3850002 9478320
-1.6949999 2.115 5.415 9478320
-1.655 2.115 5.2849998 9482432
-1.665 2.125 5.2950001 9482432
-1.635 2.115 5.2750001 10531008
-1.665 2.115 5.3150001 9482432
-1.645 2.115 5.3150001 9482432
-1.635 2.115 5.3150001 9482432
-1.625 2.105 5.3450003 9482432
-1.6049999 2.115 5.2750001 10531008
-1.6149999 2.115 5.3250003 9482432
-1.6049999 2.115 5.3150001 9482432
-1.655 2.105 5.4050002 9478320
-1.635 2.105 5.415 9478320
-1.665 2.115 5.3650002 9482432
-1.665 2.115 5.3850002 9478320
-1.645 2.115 5.3650002 9482432
-1.655 2.115 5.395 9478320
-1.645 2.115 5.395 9482432
-1.645 2.115 5.415 9478320
-1.6149999 2.105 5.415 9478320
-1.6149999 2.115 5.3650002 10531008
-1.6149999 2.115 5.3850002 9482432
-1.5949999 2.115 5.355 9482432
-1.5949999 2.115 5.3850002 9482432
-1.625 2.115 5.395 9482432
-1.5949999 2.115 5.4250002 9478320
-1.8149999 1.9350001 5.4349999 9478320
-1.795 1.9150001 5.4450002 9478320
-1.795 1.9250001 5.4349999 9478320
-1.795 1.9250001 5.4450002 9478320
-1.8049999 1.9450001 5.4349999 9478320
-1.795 1.9450001 5.4549999 9478320
-1.8149999 1.985 5.4349999 9478304
-1.8049999 1.955 5.4349999 9478320
-1.8049999 1.975 5.4450002 9478304
-1.8049999 1.985 5.4450002 9478304
-1.795 1.975 5.4450002 9478320
-1.785 1.9250001 5.4650002 9478320
-1.775 1.9350001 5.4549999 9478320
-1.775 1.9450001 5.4650002 9478320
-1.775 1.9150001 5.4749999 9478320
-1.775 1.9250001 5.4850001 9478320
-1.775 1.9450001 5.4749999 9478320
-1.755 1.9150001 5.4949999 9478320
-1.755 1.9450001 5.4850001 9478320
-1.765 1.9350001 5.4949999 9478320
-1.785 1.955 5.4450002 9478320
-1.775 1.965 5.4549999 9478320
-1.785 1.985 5.4450002 9478304
-1.775 1.975 5.4549999 9478320
-1.775 1.985 5.4549999 9478304
-1.765 1.965 5.4650002 9478304
-1.765 1.985 5.4650002 9478304
-1.775 1.955 5.4749999 9478320
-1.755 1.955 5.4850001 9478320
-1.755 1.965 5.4749999 9478320
-1.755 1.985 5.4850001 9478304
-1.8149999 2.0150001 5.4349999 9478304
-1.8049999 2.0050001 5.4450002 9478304
-1.8049999 2.0150001 5.4450002 9474208
-1.8049999 2.0250001 5.4349999 9474208
-1.8049999 2.0450001 5.4349999 8425616
-1.795 2.0350001 5.4450002 9474208
-1.795 2.0450001 5.4450002 8425616
-1.8049999 2.0650001 5.4450002 8425616
-1.785 2.0050001 5.4450002 9478304
-1.775 2.0050001 5.4549999 9478304
-1.785 2.0150001 5.4450002 9478304
-1.775 2.0150001 5.4549999 8425632
-1.765 1.995 5.4650002 9478304
-1.765 2.0250001 5.4650002 9474208
-1.755 2.0050001 5.4850001 9478304
-1.765 2.0150001 5.4749999 9474208
-1.755 2.0150001 5.4850001 8425632
-1.775 2.0350001 5.4549999 9474208
-1.775 2.0550001 5.4549999 8425616
-1.765 2.0450001 5.4650002 8425632
-1.755 2.0350001 5.4850001 8425632
-1.755 2.0450001 5.4749999 8425632
-1.765 2.0550001 5.4749999 7372944
-1.755 2.0650001 5.4850001 8425616
-1.8349999 2.075 5.4349999 8421520
-1.7449999 1.9150001 5.4949999 9478320
-1.7449999 1.9350001 5.5050001 9478320
-1.7449999 1.9450001 5.5050001 9478320
-1.7449999 1.965 5.4949999 9478320
-1.7349999 1.965 5.5050001 9478304
-1.7449999 1.975 5.4949999 9478304
-1.7349999 1.975 5.5050001 9478304
-1.7349999 1.9250001 5.5149999 9478320
-1.7349999 1.9350001 5.5149999 9478320
-1.7249999 1.9250001 5.5250001 9478320
-1.7149999 1.9150001 5.5349998 9478320
-1.7249999 1.9450001 5.5250001 9478320
-1.7149999 1.9350001 5.5450001 9478320
-1.7149999 1.9450001 5.5349998 9478320
-1.7349999 1.955 5.5149999 9478320
-1.7249999 1.955 5.5250001 9478320
-1.7249999 1.965 5.5250001 9478304
-1.7149999 1.965 5.5450001 9478320
-1.7249999 1.985 5.5250001 9478304
-1.7149999 1.975 5.5349998 9478320
-1.7049999 1.9150001 5.5450001 9478320
-1.7049999 1.9350001 5.5450001 9478320
-1.7049999 1.9450001 5.5450001 9478320
-1.6949999 1.9250001 5.5549998 9478320
-1.6949999 1.9350001 5.5650001 9478320
-1.6849999 1.9250001 5.5750003 9478320
-1.675 1.9150001 5.5750003 9478320
-1.6849999 1.9450001 5.585 9478320
-1.7049999 1.965 5.5450001 9478320
-1.7049999 1.975 5.5450001 9478320
-1.6949999 1.955 5.5650001 9478320
-1.6949999 1.965 5.5650001 9478320
-1.6949999 1.985 5.5549998 9478304
-1.6849999 1.955 5.5750003 9478320
-1.6849999 1.975 5.5750003 9478304
-1.675 1.985 5.5750003 8425632
-1.7449999 1.995 5.4949999 9478304
-1.7449999 2.0050001 5.5050001 8425632
-1.7349999 1.995 5.5050001 9478304
-1.7449999 2.0250001 5.4949999 8425632
-1.7349999 2.0250001 5.5050001 8425632
-1.7449999 2.0350001 5.4949999 8425632
-1.7449999 2.0450001 5.4949999 8425616
-1.7349999 2.0350001 5.5050001 8425632
-1.7349999 2.0550001 5.5050001 7372944
-1.7349999 2.0150001 5.5149999 9474208
-1.7249999 2.0050001 5.5250001 8425632
-1.7149999 1.995 5.5450001 9478304
-1.7149999 2.0050001 5.5450001 8425632
-1.7249999 2.0150001 5.5349998 8425632
-1.7149999 2.0250001 5.5450001 9474208
-1.7249999 2.0350001 5.5250001 8425632
-1.7249999 2.0450001 5.5149999 8425616
-1.7149999 2.0350001 5.5450001 8425632
-1.7149999 2.0550001 5.5349998 8425616
-1.7049999 1.995 5.5450001 9474208
-1.7049999 2.0050001 5.5450001 8425632
-1.7049999 2.0250001 5.5450001 8425632
-1.6949999 1.995 5.5549998 9474208
-1.675 2.0050001 5.5650001 9474208
-1.6849999 2.0150001 5.5549998 9474208
-1.6849999 2.0250001 5.5549998 8425632
-1.675 2.0150001 5.5650001 8425632
-1.7049999 2.0350001 5.5450001 8425632
-1.7049999 2.0550001 5.5549998 8425616
-1.6849999 2.0450001 5.5549998 8425616
-1.675 2.0350001 5.5650001 8425632
-1.675 2.0450001 5.5750003 8425632
-1.665 1.9150001 5.585 9478320
-1.665 1.9350001 5.585 9478320
-1.665 1.975 5.585 9478320
-1.665 2.0650001 5.4650002 15790320
-1.665 1.995 5.585 8425632
-1.665 2.0050001 5.585 8425632
-1.655 1.995 5.585 9474208
-1.665 2.0250001 5.585 8425632
-1.665 2.0350001 5.585 8425632
-1.675 2.0550001 5.5950003 8421520
-1.655 1.9150001 5.5950003 9478320
-1.665 1.9450001 5.5950003 9478320
-1.655 1.9350001 5.5950003 9478320
-1.645 1.9250001 5.5950003 9478320
-1.635 1.9150001 5.6150002 9478320
-1.645 1.9350001 5.605 9474224
-1.635 1.9450001 5.6150002 9478304
-1.665 1.965 5.5950003 9478320
-1.655 1.955 5.5950003 9478320
-1.655 1.965 5.5950003 9478320
-1.655 1.985 5.5950003 9478304
-1.645 1.955 5.605 9474224
-1.645 1.965 5.605 9478304
-1.635 1.955 5.625 9478320
-1.645 1.985 5.5950003 8425632
-1.635 1.975 5.6150002 9474208
-1.625 1.9250001 5.6150002 9478320
-1.6149999 1.9150001 5.625 9478320
-1.6149999 1.9250001 5.625 9478320
-1.6149999 1.9450001 5.625 9478320
-1.6049999 1.9250001 5.645 9478320
-1.5949999 1.9250001 5.6550002 9474208
-1.6049999 1.9350001 5.6350002 9478320
-1.6049999 1.9450001 5.6350002 9474208
-1.5949999 1.9350001 5.645 9478304
-1.6149999 1.965 5.625 9478304
-1.625 1.985 5.605 8425632
-1.6149999 1.975 5.625 8425632
-1.6049999 1.965 5.645 8425632
-1.5949999 1.955 5.6550002 9474208
-1.6049999 1.985 5.645 8425632
-1.5949999 1.975 5.6550002 8425632
-1.5949999 1.985 5.6550002 8425632
-1.655 2.0150001 5.5950003 8425632
-1.655 2.0250001 5.5950003 8425632
-1.645 1.995 5.5950003 8425632
-1.645 2.0150001 5.605 8425632
-1.635 2.0150001 5.6150002 8425632
-1.655 2.0450001 5.5950003 8425632
-1.645 2.0350001 5.605 8425632
-1.645 2.0450001 5.6150002 8421520
-1.635 2.0350001 5.625 8425616
-1.635 2.0550001 5.625 8425616
-1.625 1.995 5.605 8425632
-1.6149999 1.995 5.625 8425632
-1.6149999 2.0050001 5.625 8425632
-1.625 2.0250001 5.6350002 8425632
-1.6049999 1.995 5.645 8425632
-1.5949999 2.0050001 5.665 8425632
-1.6049999 2.0150001 5.645 8425632
-1.6049999 2.0250001 5.645 8425632
-1.5949999 2.0150001 5.6550002 8425632
-1.625 2.0350001 5.6350002 8425616
-1.6049999 2.0450001 5.6350002 8425616
-1.5949999 2.0450001 5.645 8425616
-1.5949999 2.0350001 5.6550002 8425616
-1.7149999 2.085 5.4349999 11583680
-1.6949999 2.085 5.4349999 8421520
-1.6949999 2.105 5.4349999 9478320
-1.675 2.075 5.4450002 11583680
-1.6849999 2.095 5.4450002 8425616
-1.6849999 2.105 5.4349999 9478320
-1.675 2.095 5.4450002 9478320
-1.675 2.105 5.4450002 9478320
-1.655 2.075 5.4450002 7372928
-1.655 2.085 5.4349999 9478320
-1.655 2.105 5.4349999 9478320
-1.645 2.085 5.4650002 8425616
-1.645 2.095 5.4450002 9478320
-1.635 2.105 5.4349999 9478320
-1.635 2.095 5.4650002 9478320
-1.655 2.075 5.4749999 11579584
-1.635 2.075 5.4850001 7372928
-1.635 2.085 5.4749999 9478320
-1.625 2.105 5.4349999 9478320
-1.6149999 2.095 5.4650002 9478320
-1.6149999 2.105 5.4549999 9478320
-1.5949999 2.105 5.4450002 9478320
-1.6049999 2.095 5.4650002 9478320
-1.625 2.085 5.5050001 8425616
-1.625 2.095 5.4949999 9478320
-1.6149999 2.095 5.4949999 9478320
-1.5949999 2.105 5.4749999 9478320
-1.5949999 2.095 5.4949999 9478320
-1.6149999 2.085 5.5149999 9478320
-1.5749999 2.105 5.1150002 10531024
-1.5749999 2.105 5.145 10531024
-1.5649999 2.105 5.145 10531008
-1.5549999 2.105 5.1350002 10531008
-1.5849999 2.095 5.165 10531008
-1.5749999 2.095 5.165 10531008
-1.5549999 2.095 5.1550002 10531024
-1.5849999 2.115 5.1350002 10531024
-1.5649999 2.115 5.1350002 10531024
-1.535 2.085 5.145 10531008
-1.5549999 2.105 5.2150002 10531008
-1.5849999 2.105 5.2649999 10531008
-1.5749999 2.105 5.2550001 9482432
-1.5549999 2.125 5.2649999 10531008
-1.535 2.105 5.1950002 10531008
-1.525 2.095 5.2049999 10531008
-1.525 2.105 5.1950002 10531008
-1.515 2.095 5.2049999 10531008
-1.545 2.095 5.2350001 10531008
-1.505 2.085 5.1150002 10531008
-1.4749999 2.095 5.1150002 10531024
-1.505 2.105 5.1849999 10531024
-1.4649999 2.095 5.125 10531024
-1.4349999 2.085 5.1150002 10531024
-1.4449999 2.095 5.125 10531024
-1.505 2.105 5.2150002 10531008
-1.4849999 2.105 5.1950002 10531024
-1.4849999 2.105 5.2049999 10531008
-1.505 2.095 5.2350001 10531008
-1.4949999 2.115 5.2049999 10531024
-1.4549999 2.095 5.2049999 10531024
-1.4449999 2.095 5.2049999 10531024
-1.4549999 2.105 5.2649999 10531008
-1.4349999 2.095 5.2350001 10531008
-1.5849999 2.105 5.2950001 10531008
-1.5549999 2.105 5.3049998 10531008
-1.5549999 2.115 5.2950001 10531008
-1.5749999 2.115 5.3150001 10531008
-1.5549999 2.115 5.3450003 10531008
-1.535 2.095 5.2849998 10531008
-1.535 2.115 5.2750001 10531008
-1.515 2.115 5.2950001 10531008
-1.535 2.115 5.3250003 10531008
-1.525 2.125 5.335 10531008
-1.515 2.125 5.3450003 10531008
-1.5849999 2.115 5.355 9482432
-1.5749999 2.115 5.3650002 10531008
-1.5549999 2.125 5.3850002 9482432
-1.5849999 2.115 5.395 10531008
-1.5749999 2.125 5.4050002 10531008
-1.5749999 2.115 5.4250002 9482432
-1.5549999 2.125 5.415 9482432
-1.525 2.105 5.415 9482432
-1.515 2.105 5.415 9482432
-1.535 2.125 5.3850002 9482432
-1.515 2.115 5.355 10531008
-1.545 2.115 5.4250002 9482432
-1.545 2.125 5.4250002 9482432
-1.525 2.115 5.395 9482432
-1.4949999 2.105 5.335 9482432
-1.4749999 2.105 5.335 10531008
-1.4749999 2.115 5.2849998 10531008
-1.4949999 2.115 5.3250003 10531008
-1.4649999 2.105 5.2950001 10531008
-1.4549999 2.095 5.3049998 10531008
-1.4549999 2.105 5.3049998 10531008
-1.4349999 2.095 5.2750001 10531008
-1.4449999 2.105 5.3150001 10531008
-1.505 2.105 5.3650002 9482432
-1.4849999 2.095 5.355 9482432
-1.505 2.115 5.4250002 9482432
-1.4849999 2.115 5.395 10531008
-1.4649999 2.105 5.375 10531008
-1.4349999 2.105 5.395 9482432
-1.4449999 2.115 5.355 10531008
-1.4449999 2.115 5.3850002 9482432
-1.4349999 2.115 5.3850002 10531008
-1.4349999 2.125 5.375 10531008
-1.405 2.095 5.1550002 10531024
-1.395 2.095 5.2249999 10531024
-1.425 2.095 5.2350001 10531008
-1.415 2.105 5.2550001 10531024
-1.3549999 2.075 5.1950002 10531024
-1.3449999 2.085 5.1750002 10531024
-1.3449999 2.075 5.2249999 9482432
-1.3249999 2.075 5.2049999 10531008
-1.3149999 2.085 5.2150002 10531024
-1.3249999 2.085 5.2449999 9482432
-1.3049999 2.105 5.2150002 10531024
-1.285 2.095 5.2049999 10531024
-1.3049999 2.095 5.2350001 10531024
-1.295 2.105 5.2449999 10531024
-1.285 2.105 5.2649999 10531008
-1.425 2.105 5.2950001 10531008
-1.385 2.095 5.2750001 10531008
-1.3549999 2.095 5.3150001 10531008
-1.3649999 2.095 5.3450003 9482432
-1.375 2.115 5.3450003 10531008
-1.415 2.105 5.375 9482432
-1.405 2.105 5.375 9482432
-1.415 2.115 5.3650002 10531008
-1.395 2.115 5.355 10531008
-1.385 2.105 5.3650002 9482432
-1.3549999 2.105 5.3650002 9482432
-1.3249999 2.105 5.2849998 9482432
-1.3449999 2.105 5.3250003 10531024
-1.3349999 2.105 5.335 10531008
-1.3149999 2.105 5.335 10531024
-1.3049999 2.105 5.2950001 10531024
-1.295 2.105 5.2950001 10531024
-1.275 2.105 5.2849998 10531008
-1.3049999 2.105 5.3450003 9482432
-1.275 2.105 5.3250003 10531008
-1.3249999 2.105 5.375 9482432
-1.3449999 2.115 5.395 10531008
-1.3149999 2.115 5.395 9482432
-1.295 2.115 5.355 10531008
-1.3049999 2.115 5.395 10531008
-1.295 2.125 5.4050002 9482432
-1.275 2.115 5.4050002 9482432
-1.5549999 2.0550001 5.5450001 12636384
-1.535 2.0550001 5.5549998 7372928
-1.525 2.0650001 5.5750003 7372928
-1.5849999 1.9150001 5.665 9478304
-1.5849999 1.9250001 5.665 9474208
-1.5849999 1.9450001 5.665 9474208
-1.5849999 1.955 5.665 8425632
-1.5849999 1.975 5.665 8425632
-1.5749999 1.9150001 5.6750002 9478304
-1.5749999 1.9350001 5.6750002 9478304
-1.5749999 1.9450001 5.6750002 8425632
-1.5649999 1.9250001 5.6950002 9474208
-1.5549999 1.9350001 5.6849999 8425632
-1.5549999 1.9150001 5.7150002 9478304
-1.5749999 1.965 5.6750002 9474208
-1.5749999 1.975 5.6750002 8425632
-1.5549999 1.955 5.6849999 8425632
-1.5549999 1.965 5.6849999 8425632
-1.5649999 1.985 5.6849999 8425632
-1.545 1.9250001 5.7049999 9474208
-1.545 1.9450001 5.7049999 8425632
-1.535 1.9150001 5.7249999 8425632
-1.535 1.9350001 5.7150002 8425632
-1.535 1.9450001 5.7150002 8425632
-1.525 1.9250001 5.7350001 8425632
-1.525 1.9350001 5.7350001 8425632
-1.545 1.955 5.7049999 8425632
-1.545 1.975 5.7049999 8425632
-1.545 1.985 5.7049999 8425632
-1.535 1.965 5.7150002 8425632
-1.535 1.975 5.7150002 8425632
-1.525 1.955 5.7350001 8425632
-1.525 1.965 5.7350001 8425632
-1.525 1.985 5.7350001 8425632
-1.5849999 1.995 5.665 8425632
-1.5849999 2.0050001 5.665 8425632
-1.5849999 2.0250001 5.665 8425632
-1.5849999 2.0350001 5.665 8425616
-1.525 2.0650001 5.6150002 13689056
-1.5749999 1.995 5.6750002 8425632
-1.5749999 2.0150001 5.6750002 8425632
-1.5749999 2.0250001 5.6750002 8425616
-1.5649999 1.995 5.6950002 8425632
-1.5649999 2.0150001 5.6950002 8425632
-1.5549999 2.0250001 5.7150002 8425632
-1.5749999 2.0450001 5.6849999 7372944
-1.5649999 2.0350001 5.6950002 8425616
-1.5649999 2.0450001 5.7049999 7372944
-1.5549999 2.0350001 5.7150002 7372944
-1.545 2.0050001 5.7049999 8425632
-1.535 1.995 5.7249999 8425632
-1.535 2.0150001 5.7249999 8425632
-1.535 2.0250001 5.7249999 8425616
-1.525 1.995 5.7350001 8425632
-1.515 2.0050001 5.7449999 8425632
-1.525 2.0150001 5.7350001 8425616
-1.545 2.0450001 5.7350001 7372944
-1.525 2.0350001 5.7449999 8425616
-1.4849999 2.0650001 5.6550002 10526896
-1.4749999 2.0650001 5.6750002 6320240
-1.4449999 2.0550001 5.6750002 11583680
-1.4449999 2.0650001 5.6750002 7372944
-1.4349999 2.0550001 5.6849999 6320240
-1.5749999 2.105 5.4349999 9478320
-1.5549999 2.105 5.4450002 9478320
-1.5649999 2.105 5.4549999 9478320
-1.5749999 2.105 5.4850001 9478320
-1.5849999 2.095 5.4949999 9478320
-1.5649999 2.105 5.4850001 9478320
-1.5649999 2.095 5.5050001 8429744
-1.5549999 2.095 5.5050001 9478320
-1.5649999 2.115 5.4349999 9478320
-1.535 2.105 5.4450002 9482432
-1.525 2.105 5.4549999 9482432
-1.545 2.105 5.4850001 9478320
-1.535 2.105 5.4850001 9478320
-1.515 2.105 5.4850001 9478320
-1.515 2.115 5.4549999 9482432
-1.5749999 2.085 5.5149999 9478320
-1.5749999 2.075 5.5349998 9478320
-1.5649999 2.085 5.5450001 9478320
-1.5549999 2.095 5.5250001 8429744
-1.5649999 2.075 5.5549998 7372928
-1.5549999 2.075 5.5549998 8425632
-1.545 2.105 5.5149999 9478320
-1.545 2.095 5.5450001 8429744
-1.535 2.095 5.5450001 9478320
-1.525 2.105 5.5149999 9478320
-1.515 2.105 5.5250001 9478320
-1.535 2.075 5.5549998 9478320
-1.545 2.095 5.5650001 9478320
-1.525 2.075 5.5750003 9478320
-1.525 2.105 5.5549998 9478320
-1.525 2.095 5.5750003 8429744
-1.515 2.095 5.585 8429744
-1.4749999 2.105 5.4949999 9482432
-1.4849999 2.115 5.4349999 9482432
-1.505 2.115 5.4749999 9482432
-1.505 2.115 5.5050001 9478336
-1.4349999 2.105 5.4549999 9482432
-1.4549999 2.105 5.4850001 9482432
-1.4649999 2.095 5.5050001 9478320
-1.4449999 2.105 5.4850001 9482432
-1.4549999 2.115 5.4549999 9482432
-1.4349999 2.115 5.4349999 9482432
-1.4949999 2.105 5.5250001 9478320
-1.4849999 2.105 5.5149999 9478320
-1.4849999 2.095 5.5450001 9478320
-1.4749999 2.095 5.5349998 9478320
-1.505 2.105 5.5549998 9478320
-1.4549999 2.105 5.5149999 9478320
-1.4349999 2.105 5.5149999 9478336
-1.4449999 2.095 5.5450001 9478320
-1.525 2.075 5.5950003 8425616
-1.515 2.085 5.5950003 9478320
-1.515 2.085 5.625 8425632
-1.505 2.105 5.5950003 9478320
-1.505 2.095 5.6150002 9478320
-1.4849999 2.075 5.645 7372944
-1.4749999 2.075 5.6550002 9478304
-1.4549999 2.075 5.6550002 9478304
-1.4549999 2.095 5.645 8425632
-1.4349999 2.085 5.645 8425632
-1.4449999 2.075 5.6550002 9474208
-1.4649999 2.075 5.6750002 6320256
-1.4349999 2.075 5.6750002 9478304
-1.425 2.0650001 5.7049999 6320256
-1.405 2.0650001 5.7049999 8425632
-1.425 2.0550001 5.7150002 13689056
-1.415 2.0550001 5.7249999 10530992
-1.405 2.0650001 5.7449999 8425632
-1.3549999 2.0650001 5.7449999 8425632
-1.3449999 2.0650001 5.7449999 8425632
-1.3149999 2.0650001 5.7150002 9478320
-1.3249999 2.0650001 5.7449999 8425632
-1.425 2.105 5.4549999 9482432
-1.405 2.105 5.4549999 9482432
-1.425 2.105 5.4850001 9482432
-1.415 2.105 5.4850001 9482432
-1.415 2.095 5.4949999 9482432
-1.405 2.105 5.4850001 9482432
-1.415 2.115 5.4349999 9482432
-1.405 2.115 5.4349999 9482432
-1.395 2.115 5.4749999 9482432
-1.375 2.115 5.4349999 9482432
-1.375 2.115 5.4549999 9482432
-1.3649999 2.125 5.4450002 9482432
-1.3649999 2.115 5.4650002 9482432
-1.385 2.115 5.4949999 9482432
-1.3549999 2.115 5.4749999 9482432
-1.415 2.095 5.5450001 9478320
-1.405 2.105 5.5149999 9478336
-1.395 2.105 5.5250001 9482432
-1.405 2.115 5.585 9478320
-1.395 2.115 5.585 9478320
-1.3649999 2.095 5.585 9478320
-1.3349999 2.125 5.4450002 9482432
-1.3449999 2.125 5.4549999 9482432
-1.3149999 2.115 5.4349999 9482432
-1.3349999 2.115 5.4749999 9482432
-1.285 2.105 5.4450002 9478336
-1.295 2.115 5.4349999 9482432
-1.295 2.135 5.4749999 9482432
-1.285 2.125 5.4949999 9478320
-1.3449999 2.095 5.5750003 9478320
-1.295 2.105 5.5250001 9482432
-1.275 2.105 5.5349998 9482432
-1.3049999 2.095 5.585 9478320
-1.285 2.095 5.5750003 9478320
-1.285 2.115 5.5149999 9478336
-1.275 2.115 5.5250001 9482432
-1.425 2.095 5.625 9478320
-1.405 2.095 5.625 9478320
-1.425 2.085 5.6350002 9478320
-1.425 2.075 5.6550002 8425632
-1.415 2.085 5.665 8425632
-1.385 2.105 5.605 9478320
-1.385 2.095 5.625 9478320
-1.375 2.095 5.6150002 9478320
-1.3549999 2.095 5.6150002 9478320
-1.385 2.095 5.645 9478320
-1.3649999 2.085 5.645 9478320
-1.425 2.075 5.6950002 8425632
-1.405 2.075 5.6950002 8425632
-1.395 2.075 5.6950002 8425632
-1.395 2.075 5.7150002 8425632
-1.385 2.075 5.7150002 8425632
-1.3649999 2.075 5.7249999 8425632
-1.3549999 2.075 5.7150002 8425632
-1.3449999 2.095 5.6150002 9478320
-1.3149999 2.095 5.6150002 9478320
-1.295 2.095 5.625 9478320
-1.275 2.105 5.5950003 9478320
-1.285 2.095 5.6150002 9478320
-1.3049999 2.085 5.665 9478320
-1.295 2.085 5.665 9478320
-1.3049999 2.095 5.645 9478320
-1.275 2.085 5.665 9478320
-1.285 2.095 5.645 9478320
-1.275 2.095 5.6550002 9478320
-1.3349999 2.075 5.6950002 9478320
-1.3149999 2.075 5.6950002 9478320
-1.3349999 2.075 5.7150002 8425632
-1.295 2.075 5.6950002 9478320
-1.285 2.075 5.6950002 9478320
-1.275 2.085 5.7049999 9478320
-1.3049999 2.075 5.7249999 9478320
-1.295 2.075 5.7249999 9478320
-1.275 2.075 5.7449999 9478320
-1.515 1.9150001 5.7550001 9478304
-1.515 1.9250001 5.7550001 8425632
-1.515 1.9450001 5.7550001 8425632
-1.515 1.955 5.7550001 8425632
-1.515 1.975 5.7550001 8425632
-1.515 1.985 5.7550001 8425632
-1.515 2.0150001 5.7550001 8425616
-1.515 2.0350001 5.7550001 8425616
-1.505 1.9150001 5.7649999 9478304
-1.4949999 1.9250001 5.7849998 8425632
-1.505 1.9350001 5.7649999 8425632
-1.505 1.9450001 5.7649999 8425632
-1.4849999 1.9350001 5.7750001 8425632
-1.4849999 1.9450001 5.7750001 8425632
-1.4749999 1.9350001 5.7849998 8429728
-1.4749999 1.9150001 5.7950001 8425632
-1.4749999 1.9250001 5.7950001 8425632
-1.505 1.965 5.7649999 8425632
-1.505 1.975 5.7649999 8425632
-1.4849999 1.965 5.7750001 8425632
-1.4749999 1.955 5.7750001 8425632
-1.4749999 1.965 5.7849998 8425632
-1.4849999 1.985 5.7750001 8425632
-1.4749999 1.985 5.7950001 8425632
-1.4649999 1.9250001 5.8049998 8425632
-1.4649999 1.9150001 5.8150001 8425632
-1.4549999 1.9150001 5.8250003 8425632
-1.4649999 1.9450001 5.8049998 8425632
-1.4549999 1.9350001 5.8150001 8425632
-1.4549999 1.9450001 5.8150001 8425632
-1.4649999 1.955 5.8049998 8425632
-1.4549999 1.965 5.8150001 8425632
-1.4649999 1.975 5.8049998 8425632
-1.4549999 1.975 5.8150001 8425632
-1.4449999 1.955 5.8250003 8425632
-1.4349999 1.965 5.8250003 8425632
-1.4349999 1.985 5.8250003 8425632
-1.4449999 1.9250001 5.835 8425632
-1.4349999 1.9150001 5.855 8425632
-1.4449999 1.9350001 5.835 8425632
-1.505 2.0050001 5.7649999 8425632
-1.505 1.995 5.7750001 8425632
-1.4949999 2.0050001 5.7849998 8425632
-1.505 2.0250001 5.7649999 8425616
-1.4849999 2.0150001 5.7750001 8425616
-1.4849999 2.0250001 5.7750001 8425616
-1.4749999 2.0150001 5.7849998 8425616
-1.4749999 2.0250001 5.7750001 8425616
-1.4749999 2.0050001 5.7950001 8425632
-1.505 2.0350001 5.7550001 7372944
-1.4549999 2.0250001 5.7750001 8425616
-1.4649999 1.995 5.8049998 8425632
-1.4649999 2.0050001 5.8049998 8425632
-1.4549999 2.0050001 5.8049998 8425616
-1.4549999 1.995 5.8150001 8425632
-1.4649999 2.0150001 5.7950001 8425616
-1.4349999 1.995 5.8250003 8425632
-1.4449999 2.0250001 5.7950001 8425616
-1.4349999 2.0250001 5.8049998 8425616
-1.4349999 2.0150001 5.8150001 8425632
-1.425 1.9250001 5.855 8425632
-1.415 1.9150001 5.8650002 8425632
-1.425 1.9450001 5.8450003 8425632
-1.415 1.9350001 5.8650002 8425632
-1.415 1.9450001 5.8650002 8425632
-1.405 1.9250001 5.875 8425632
-1.395 1.9250001 5.8850002 8425632
-1.405 1.9350001 5.875 8425632
-1.395 1.9450001 5.895 8425632
-1.425 1.955 5.8450003 8425632
-1.415 1.965 5.8650002 8425616
-1.425 1.975 5.8450003 8425632
-1.425 1.985 5.835 8425632
-1.415 1.975 5.8650002 8425632
-1.405 1.955 5.8850002 8425632
-1.405 1.965 5.8850002 8425616
-1.395 1.955 5.895 8425632
-1.405 1.985 5.875 8425616
-1.395 1.985 5.8850002 8425616
-1.395 1.975 5.895 8425616
-1.375 1.9150001 5.9050002 8425616
-1.375 1.9350001 5.9050002 8425616
-1.375 1.9450001 5.9050002 8425616
-1.375 1.965 5.9050002 8425632
-1.375 1.975 5.895 8425632
-1.425 2.0150001 5.8250003 8425616
-1.425 2.0250001 5.8250003 8425616
-1.395 2.0650001 5.7550001 8425632
-1.375 2.0650001 5.7550001 9474208
-1.385 2.0650001 5.7750001 9478304
-1.3549999 2.0450001 5.7849998 9478304
-1.3649999 2.0550001 5.7550001 8425632
-1.425 2.0050001 5.835 8425616
-1.415 2.0050001 5.8450003 8425616
-1.415 1.995 5.855 8425632
-1.415 2.0150001 5.835 8425616
-1.395 2.0050001 5.855 8425616
-1.395 2.0250001 5.855 8425616
-1.405 1.995 5.875 8425616
-1.385 2.0050001 5.875 8425616
-1.375 2.0050001 5.8850002 8425616
-1.375 1.995 5.895 8425616
-1.385 2.0150001 5.875 8425616
-1.375 2.0150001 5.8850002 8425616
-1.3649999 2.0050001 5.9050002 8425616
-1.3649999 2.0250001 5.9050002 8425616
-1.3449999 2.0550001 5.7649999 8425632
-1.3349999 2.0550001 5.7750001 8425632
-1.3149999 2.0650001 5.7849998 8425632
-1.3349999 2.0550001 5.7950001 8425632
-1.3149999 2.0450001 5.8250003 9478304
-1.3249999 2.0550001 5.8049998 8425632
-1.3049999 2.0550001 5.8049998 8425632
-1.295 2.0650001 5.8250003 8425632
-1.3049999 2.0550001 5.8450003 8425632
-1.285 2.0650001 5.835 8425632
-1.285 2.0550001 5.855 8425632
-1.3649999 1.9150001 5.9250002 8425616
-1.3549999 1.9250001 5.9349999 8425616
-1.3649999 1.9350001 5.915 8425616
-1.3649999 1.9450001 5.915 8425616
-1.3549999 1.9350001 5.9250002 8425616
-1.3649999 1.965 5.915 8425616
-1.3549999 1.955 5.9250002 8425616
-1.3649999 1.985 5.915 8425632
-1.3549999 1.975 5.9349999 8425616
-1.3549999 1.985 5.9349999 8425616
-1.3649999 1.995 5.915 8425616
-1.3549999 2.0050001 5.9349999 8425616
-1.3549999 2.0150001 5.9250002 8425616
-1.3449999 1.9250001 5.9450002 8425616
-1.3349999 1.9150001 5.9450002 8425616
-1.3349999 1.9450001 5.9349999 8425616
-1.3249999 1.9150001 5.9549999 8425616
-1.3149999 1.9150001 5.9650002 8425616
-1.3249999 1.9350001 5.9650002 8425616
-1.3249999 1.9450001 5.9650002 8425616
-1.3149999 1.9350001 5.9749999 8425616
-1.3349999 1.955 5.9349999 8425616
-1.3349999 1.975 5.9450002 8425616
-1.3249999 1.965 5.9549999 8425616
-1.3149999 1.955 5.9749999 8425616
-1.3149999 1.965 5.9749999 8425616
-1.3249999 1.975 5.9549999 8425616
-1.3149999 1.985 5.9650002 8425616
-1.3049999 1.9250001 5.9850001 8425616
-1.3049999 1.9450001 5.9850001 8425616
-1.3049999 1.955 5.9850001 8425616
-1.3049999 1.975 5.9850001 8425616
-1.295 1.985 5.9850001 8425616
-1.285 1.9150001 6.0050001 8425616
-1.275 1.9150001 6.0149999 8425616
-1.285 1.9350001 6.0050001 8425616
-1.285 1.9450001 6.0050001 8425616
-1.275 1.9350001 6.0149999 8425616
-1.285 1.965 6.0050001 8425616
-1.275 1.955 6.0149999 8425616
-1.275 1.965 6.0149999 8425616
-1.285 1.975 5.9949999 8425616
-1.275 1.975 6.0050001 8425616
-1.3349999 1.995 5.9349999 8425616
-1.3349999 2.0050001 5.9450002 8425616
-1.3349999 2.0150001 5.9349999 8425616
-1.3249999 1.995 5.9450002 8425616
-1.3249999 2.0050001 5.9450002 8425616
-1.3249999 2.0250001 5.9349999 8425616
-1.3049999 2.0050001 5.9450002 8425616
-1.3049999 1.995 5.9549999 8425616
-1.295 2.0050001 5.9749999 8425616
-1.295 2.0150001 5.9650002 8425616
-1.285 2.0050001 5.9850001 8425616
-1.285 2.0250001 5.9850001 8425616
-1.285 1.995 5.9949999 8425616
-1.275 1.995 5.9949999 8425616
-1.275 2.0150001 6.0050001 8425616
-1.275 2.075 5.7750001 8429728
-1.275 2.075 5.8049998 8425632
-2.4349999 2.0250001 6.895 9482432
-2.4349999 2.0450001 6.8850002 14741744
-2.4549999 2.0350001 6.915 9482432
-1.265 0.49500006 5.9349999 8425616
-1.265 0.50500005 5.9349999 8425616
-1.255 0.49500006 5.9650002 8425616
-1.265 0.52500004 5.9250002 8425632
-1.265 0.54500008 5.9250002 8425616
-1.2449999 0.52500004 5.9450002 8425616
-1.2449999 0.54500008 5.9450002 8425616
-1.255 0.51500005 5.9549999 8425616
-1.2349999 0.54500008 5.9650002 8425616
-1.265 0.55500007 5.9250002 8425616
-1.265 0.57500005 5.9250002 8425616
-1.265 0.58500004 5.9349999 8425616
-1.2449999 0.55500007 5.9349999 8425616
-1.2349999 0.55500007 5.9450002 8425616
-1.2449999 0.57500005 5.9349999 8425616
-1.2449999 0.58500004 5.9349999 8425616
-1.2349999 0.57500005 5.9450002 8425616
-1.265 0.60500008 5.9349999 8425616
-1.265 0.62500006 5.9349999 8425616
-1.2449999 0.60500008 5.9450002 8425616
-1.2449999 0.62500006 5.9450002 8425616
-1.2349999 0.59500009 5.9549999 8425616
-1.2349999 0.60500008 5.9549999 8425616
-1.2349999 0.62500006 5.9549999 8425616
-1.2249999 0.57500005 5.9650002 7372944
-1.2249999 0.60500008 5.9650002 8421520
-1.2149999 0.59500009 5.9650002 8425616
-1.2249999 0.62500006 5.9650002 8421520
-1.2049999 0.61500007 5.9850001 7372944
-1.2049999 0.62500006 5.9850001 7372944
-1.265 0.63500005 5.9349999 8425616
-1.265 0.65500003 5.9349999 8425616
-1.255 0.65500003 5.9549999 8425616
-1.2449999 0.63500005 5.9549999 8425616
-1.2349999 0.64500004 5.9650002 8425616
-1.2349999 0.65500003 5.9650002 8425616
-1.265 0.67500007 5.9349999 8425616
-1.265 0.68500006 5.9349999 8425616
-1.265 0.70500004 5.9349999 8425616
-1.2449999 0.70500004 5.9450002 8425616
-1.2449999 0.67500007 5.9549999 8425616
-1.2449999 0.68500006 5.9549999 8425616
-1.2349999 0.67500007 5.9650002 8425616
-1.2349999 0.68500006 5.9650002 8425616
-1.2349999 0.70500004 5.9650002 8425616
-1.2249999 0.64500004 5.9749999 8421520
-1.2249999 0.65500003 5.9850001 8421520
-1.2249999 0.67500007 5.9749999 8425616
-1.2249999 0.69500005 5.9749999 8421504
-1.2249999 0.70500004 5.9749999 8425616
-1.2149999 0.66500008 6.0050001 7372928
-1.2049999 0.64500004 5.9949999 7372944
-1.1949999 0.66500008 6.0250001 7372928
-1.2149999 0.67500007 5.9949999 7372928
-1.2149999 0.69500005 5.9949999 7372928
-1.1949999 0.67500007 6.0149999 7372928
-1.2049999 0.70500004 5.9949999 7372928
-1.1949999 0.69500005 6.0149999 7372928
-1.265 0.71500003 5.9349999 8425616
-1.265 0.73500007 5.9349999 8425616
-1.2449999 0.72500008 5.9450002 8425616
-1.2449999 0.73500007 5.9450002 8425616
-1.2349999 0.72500008 5.9749999 8425616
-1.2349999 0.73500007 5.9650002 8425616
-1.265 0.75500005 5.9450002 8425616
-1.265 0.76500005 5.9450002 8425616
-1.265 0.78500009 5.9450002 8425616
-1.255 0.78500009 5.9650002 8425616
-1.2449999 0.75500005 5.9549999 8425616
-1.2449999 0.76500005 5.9549999 8425616
-1.2349999 0.75500005 5.9749999 8425616
-1.2349999 0.77500004 5.9749999 8425616
-1.2349999 0.78500009 5.9850001 8425616
-1.2249999 0.72500008 5.9749999 8421520
-1.2249999 0.74500006 5.9749999 8421520
-1.2249999 0.75500005 5.9850001 8425616
-1.2149999 0.72500008 6.0050001 7372928
-1.2149999 0.74500006 5.9949999 7372928
-1.1949999 0.71500003 6.0149999 7372928
-1.1949999 0.72500008 6.0149999 7372928
-1.1949999 0.74500006 6.0050001 7372928
-1.2149999 0.75500005 6.0050001 7372928
-1.2249999 0.77500004 5.9949999 8421520
-1.2149999 0.77500004 6.0050001 7372928
-1.1949999 0.76500005 6.0050001 7372928
-1.1949999 0.77500004 6.0050001 7372928
-1.265 0.80500007 5.9549999 8425616
-1.255 0.80500007 5.9650002 8425616
-1.265 0.81500006 5.9650002 8425616
-1.255 0.82500005 5.9749999 8425616
-1.2349999 0.80500007 5.9850001 8425616
-1.2349999 0.82500005 5.9850001 8425616
-1.265 0.83500004 5.9650002 8425616
-1.255 0.83500004 5.9749999 8425616
-1.265 0.85500008 5.9650002 8425616
-1.265 0.86500007 5.9650002 8425616
-1.255 0.85500008 5.9650002 8425616
-1.255 0.86500007 5.9650002 8425616
-1.2349999 0.83500004 5.9850001 8425616
-1.2349999 0.85500008 5.9749999 8425616
-1.2349999 0.86500007 5.9749999 8425616
-1.2249999 0.79500008 6.0050001 8421520
-1.2249999 0.80500007 6.0050001 7372944
-1.2149999 0.79500008 6.0149999 7372928
-1.2249999 0.82500005 5.9949999 7372944
-1.2149999 0.81500006 6.0149999 7372944
-1.2149999 0.82500005 6.0149999 7372928
-1.1949999 0.79500008 6.0149999 7372928
-1.1949999 0.81500006 6.0149999 7372928
-1.1949999 0.82500005 6.0149999 7372928
-1.2249999 0.84500009 5.9949999 7372944
-1.2149999 0.84500009 6.0050001 7372928
-1.2249999 0.85500008 5.9949999 8425616
-1.2149999 0.85500008 6.0149999 7372928
-1.1949999 0.84500009 6.0250001 7372928
-1.2049999 0.86500007 6.0349998 7372928
-1.265 0.88500005 5.9650002 8425616
-1.255 0.88500005 5.9650002 8425616
-1.255 0.90500003 5.9850001 8425616
-1.2349999 0.88500005 5.9749999 8425616
-1.2349999 0.90500003 5.9850001 8425616
-1.265 0.91500008 5.9749999 8425616
-1.255 0.91500008 5.9850001 8425616
-1.265 0.93500006 5.9650002 8425616
-1.265 0.94500005 5.9650002 8425632
-1.255 0.93500006 5.9850001 8425616
-1.2449999 0.92500007 5.9949999 8425616
-1.2449999 0.93500006 6.0050001 8425616
-1.2249999 0.87500006 6.0050001 8425616
-1.2249999 0.88500005 5.9949999 7372944
-1.2149999 0.87500006 6.0250001 7372928
-1.2249999 0.90500003 6.0050001 7372944
-1.2149999 0.89500004 6.0149999 7372928
-1.2149999 0.90500003 6.0250001 7372928
-1.1949999 0.89500004 6.0250001 7372928
-1.2049999 0.87500006 6.0349998 7372928
-1.2249999 0.92500007 6.0050001 7372944
-1.2149999 0.92500007 6.0250001 7372928
-1.2249999 0.94500005 6.0149999 7372944
-1.2149999 0.94500005 6.0250001 7372928
-1.1949999 0.91500008 6.0349998 7372928
-1.1949999 0.92500007 6.0349998 7368832
-1.2049999 0.94500005 6.0450001 7372928
-1.265 0.96500003 5.9650002 8425632
-1.255 0.95500004 5.9749999 8425616
-1.255 0.96500003 5.9850001 8425616
-1.265 0.98500007 5.9749999 8425616
-1.255 0.98500007 5.9850001 8425616
-1.265 0.99500006 5.9749999 8425632
-1.255 1.0050001 5.9850001 8425616
-1.265 1.0150001 5.9749999 8425632
-1.255 1.0150001 5.9749999 8425616
-1.2349999 1.0150001 5.9850001 8425616
-1.2449999 0.95500004 5.9949999 8425616
-1.2449999 0.97500008 5.9949999 8425616
-1.2449999 0.98500007 6.0050001 7377040
-1.2449999 1.0050001 5.9949999 8425616
-1.2249999 0.95500004 6.0050001 7372944
-1.2149999 0.95500004 6.0250001 7372928
-1.2249999 0.97500008 6.0149999 7372944
-1.2249999 0.98500007 6.0149999 7372944
-1.2149999 0.97500008 6.0149999 7372928
-1.2049999 0.96500003 6.0349998 7372928
-1.2049999 0.97500008 6.0349998 7372928
-1.2249999 1.0050001 6.0149999 7372944
-1.2149999 0.99500006 6.0149999 7372928
-1.2149999 1.0050001 6.0250001 7372944
-1.2249999 1.0250001 6.0050001 7372944
-1.2149999 1.0250001 6.0250001 7372928
-1.1949999 0.99500006 6.0250001 7372928
-1.1949999 1.0050001 6.0250001 6324352
-1.2049999 1.0250001 6.0349998 6320256
-1.265 1.0350001 5.9749999 8425632
-1.265 1.0450001 5.9749999 8425616
-1.255 1.0350001 5.9749999 8425616
-1.255 1.0450001 5.9850001 8425616
-1.265 1.0650001 5.9749999 8425616
-1.255 1.0650001 5.9850001 8425616
-1.2349999 1.0350001 5.9850001 8425616
-1.265 1.085 5.9749999 8425616
-1.255 1.085 5.9850001 8421520
-1.265 1.095 5.9749999 8425616
-1.2449999 1.0550001 5.9949999 8421520
-1.2449999 1.0650001 6.0050001 8421520
-1.255 1.095 5.9949999 7372944
-1.2449999 1.085 6.0050001 7372944
-1.2349999 1.085 6.0250001 7372928
-1.2449999 1.105 6.0050001 7372944
-1.2349999 1.105 6.0250001 7372944
-1.2249999 1.0350001 6.0050001 7372944
-1.2149999 1.0450001 6.0250001 7372928
-1.2249999 1.0550001 6.0050001 7372944
-1.2149999 1.0550001 6.0250001 7372928
-1.2049999 1.0450001 6.0450001 7372928
-1.2049999 1.0650001 6.0450001 7368832
-1.2249999 1.075 6.0149999 7372944
-1.2149999 1.075 6.0349998 7372928
-1.2149999 1.095 6.0450001 7372928
-1.2049999 1.075 6.0549998 6320256
-1.265 1.115 5.9749999 8425616
-1.265 1.125 5.9749999 8425616
-1.265 1.1450001 5.9650002 8425616
-1.255 1.1450001 5.9850001 7372944
-1.265 1.1550001 5.9650002 8425616
-1.255 1.1650001 5.9850001 7372944
-1.265 1.1750001 5.9749999 8425616
-1.255 1.1750001 5.9850001 7372944
-1.255 1.115 5.9949999 7372944
-1.255 1.1350001 5.9949999 7372944
-1.2449999 1.115 6.0050001 7372944
-1.2349999 1.125 6.0250001 7372944
-1.2449999 1.1350001 6.0149999 7372944
-1.2349999 1.1350001 6.0250001 7372928
-1.2449999 1.1550001 6.0050001 7372944
-1.2449999 1.1650001 5.9949999 7372944
-1.2349999 1.1550001 6.0250001 7372928
-1.2449999 1.1850001 5.9949999 7372928
-1.2349999 1.1850001 6.0250001 7372928
-1.2149999 1.115 6.0450001 7372928
-1.2149999 1.125 6.0450001 7372928
-1.2149999 1.1450001 6.0450001 7372928
-1.2049999 1.115 6.0650001 6320240
-1.2049999 1.125 6.0650001 6316144
-1.2049999 1.1450001 6.0549998 6320240
-1.2249999 1.1650001 6.0149999 7372928
-1.2149999 1.1550001 6.0450001 7372928
-1.2149999 1.1750001 6.0349998 7372928
-1.2049999 1.1750001 6.0549998 6320240
-1.265 1.1950001 5.9749999 8425616
-1.265 1.205 5.9749999 8425616
-1.255 1.1950001 5.9850001 8421520
-1.265 1.225 5.9749999 7372944
-1.255 1.215 5.9850001 7372944
-1.265 1.245 5.9850001 8421520
-1.265 1.2550001 5.9850001 8421520
-1.2449999 1.1950001 6.0050001 7372944
-1.2349999 1.205 6.0250001 7372928
-1.2449999 1.215 6.0050001 7372928
-1.2349999 1.225 6.0349998 7372928
-1.255 1.235 5.9949999 7372944
-1.255 1.245 5.9949999 7372944
-1.255 1.2650001 6.0050001 7372944
-1.2449999 1.235 6.0149999 7372928
-1.2449999 1.2550001 6.0149999 7372928
-1.2449999 1.2650001 6.0149999 7372928
-1.2349999 1.2550001 6.0250001 7372928
-1.2349999 1.2650001 6.0250001 7372928
-1.2149999 1.1950001 6.0450001 7372928
-1.2149999 1.205 6.0450001 7368832
-1.2149999 1.225 6.0450001 6320256
-1.2049999 1.1950001 6.0650001 6320240
-1.2049999 1.205 6.0549998 6320240
-1.2049999 1.225 6.0450001 6320240
-1.2249999 1.235 6.0250001 7372928
-1.2149999 1.2550001 6.0250001 7372928
-1.2149999 1.235 6.0349998 6320256
-1.2049999 1.235 6.0349998 6320240
-1.1949999 1.2550001 6.0349998 6320240
-1.265 1.2750001 5.9749999 7372944
-1.255 1.2750001 5.9850001 7372944
-1.265 1.2950001 5.9749999 7372944
-1.265 1.3050001 5.9850001 7372944
-1.255 1.3050001 5.9850001 7372944
-1.265 1.345 5.9850001 8421520
-1.255 1.2950001 5.9949999 7372944
-1.2449999 1.2850001 6.0050001 7372944
-1.2449999 1.2950001 6.0050001 7372928
-1.255 1.325 5.9949999 7372944
-1.255 1.345 5.9949999 7372944
-1.2449999 1.3150001 6.0050001 7372928
-1.2449999 1.345 6.0050001 7372928
-1.2449999 1.335 6.0149999 7372928
-1.2249999 1.2850001 6.0149999 7372928
-1.2249999 1.3050001 6.0250001 7372928
-1.2149999 1.2750001 6.0349998 7372928
-1.2149999 1.2850001 6.0349998 6320256
-1.2149999 1.3050001 6.0349998 7368832
-1.2049999 1.2750001 6.0450001 6320240
-1.2049999 1.2950001 6.0450001 6316144
-1.2049999 1.3050001 6.0450001 6320240
-1.2249999 1.3150001 6.0149999 7372928
-1.2249999 1.335 6.0149999 7372928
-1.2249999 1.345 6.0149999 7372928
-1.2149999 1.325 6.0349998 6320256
-1.2149999 1.335 6.0349998 6320256
-1.2049999 1.325 6.0450001 6320240
-1.2049999 1.335 6.0450001 6320240
-1.255 1.365 5.9949999 7372944
-1.255 1.375 6.0050001 7372928
-1.2449999 1.365 6.0149999 7372928
-1.2449999 1.3850001 6.0149999 7372928
-1.2349999 1.3850001 6.0349998 7372928
-1.255 1.3950001 6.0050001 7372928
-1.255 1.4150001 6.0050001 7372928
-1.255 1.4250001 6.0149999 7372944
-1.2449999 1.3950001 6.0149999 7372928
-1.2349999 1.4050001 6.0250001 7372928
-1.2449999 1.4150001 6.0149999 7372928
-1.2349999 1.4150001 6.0349998 7372928
-1.2249999 1.365 6.0250001 7372928
-1.2149999 1.355 6.0250001 6320256
-1.2149999 1.365 6.0250001 6320256
-1.2149999 1.3850001 6.0450001 6320256
-1.1949999 1.355 6.0349998 5271664
-1.1949999 1.365 6.0349998 6320240
-1.2149999 1.4050001 6.0450001 6320256
-1.2149999 1.4250001 6.0450001 6320240
-1.2049999 1.3950001 6.0549998 6316144
-1.2049999 1.4050001 6.0650001 6320240
-1.2049999 1.4250001 6.0650001 6316144
-1.265 1.475 5.9850001 8421520
-1.255 1.4450001 6.0149999 7372944
-1.255 1.465 6.0050001 7372944
-1.2449999 1.4350001 6.0250001 7372928
-1.2449999 1.4450001 6.0250001 7372928
-1.2449999 1.465 6.0250001 7372928
-1.2349999 1.4350001 6.0349998 7372928
-1.2349999 1.455 6.0349998 7372928
-1.2349999 1.465 6.0349998 7372928
-1.255 1.475 6.0050001 7372944
-1.255 1.495 6.0050001 7372944
-1.255 1.5050001 6.0050001 7372944
-1.2449999 1.475 6.0149999 7372928
-1.2449999 1.495 6.0149999 7372928
-1.2349999 1.485 6.0349998 7372928
-1.2349999 1.495 6.0349998 7372928
-1.2149999 1.4350001 6.0450001 6320256
-1.2149999 1.455 6.0450001 6320256
-1.2049999 1.4350001 6.0549998 5267568
-1.2049999 1.455 6.0549998 6320240
-1.2149999 1.475 6.0450001 6320256
-1.2149999 1.485 6.0450001 6320256
-1.2149999 1.5050001 6.0450001 6320256
-1.2049999 1.475 6.0549998 6320240
-1.2049999 1.485 6.0549998 6320240
-1.2049999 1.5050001 6.0650001 6320240
-1.255 1.5250001 6.0050001 8421520
-1.255 1.5450001 6.0050001 7372944
-1.2449999 1.5150001 6.0149999 7372944
-1.2449999 1.5250001 6.0149999 7372944
-1.2449999 1.5450001 6.0149999 7372944
-1.255 1.5550001 6.0149999 8421520
-1.255 1.575 6.0050001 8425616
-1.2449999 1.5650001 6.0250001 7372944
-1.2349999 1.5650001 6.0349998 7372944
-1.2449999 1.585 6.0349998 8425616
-1.2349999 1.585 6.0549998 7372944
-1.2249999 1.5150001 6.0250001 7372928
-1.2249999 1.5350001 6.0250001 7372928
-1.2249999 1.5450001 6.0250001 7372944
-1.2149999 1.5150001 6.0450001 6320256
-1.2149999 1.5350001 6.0450001 7368832
-1.2049999 1.5250001 6.0650001 6320240
-1.2049999 1.5350001 6.0549998 6320240
-1.2149999 1.5550001 6.0450001 7372928
-1.2149999 1.575 6.0549998 7372944
-1.2049999 1.5550001 6.0549998 6320240
-1.2049999 1.575 6.0650001 7372928
-1.1849999 1.455 6.0650001 5267552
-1.1849999 1.475 6.0650001 5267552
-1.1849999 1.495 6.0650001 5267552
-1.1849999 1.5050001 6.0650001 5267552
-1.255 1.605 6.0050001 8425616
-1.255 1.595 6.0149999 8425616
-1.255 1.625 6.0050001 8425616
-1.2449999 1.615 6.0250001 8425616
-1.2449999 1.625 6.0149999 8425616
-1.2449999 1.595 6.0349998 8425616
-1.2349999 1.605 6.0549998 8425616
-1.2349999 1.615 6.0450001 8425616
-1.255 1.6350001 6.0050001 8425616
-1.265 1.6550001 6.0250001 8425616
-1.2449999 1.6450001 6.0149999 8425616
-1.2449999 1.6650001 6.0250001 8425616
-1.2349999 1.6650001 6.0349998 8425616
-1.2249999 1.625 6.0250001 8425616
-1.2249999 1.625 6.0650001 8425616
-1.2049999 1.595 6.0650001 8425616
-1.2249999 1.6450001 6.0250001 8425616
-1.2149999 1.6350001 6.0549998 8421520
-1.2149999 1.6550001 6.0450001 8425616
-1.2149999 1.6650001 6.0450001 8425616
-1.2049999 1.6550001 6.0650001 7372944
-1.265 1.6750001 6.0250001 8425616
-1.265 1.6950001 6.0250001 8425616
-1.255 1.705 6.0149999 8425616
