# .PCD v0.7 - Point Cloud Data file format
VERSION 0.7
FIELDS x y z rgba
SIZE 4 4 4 4
TYPE F F F U
COUNT 1 1 1 1
WIDTH 1390
HEIGHT 1
VIEWPOINT 0 0 0 1 0 0 0
POINTS 1390
DATA ascii
0.32500005 2.075 5.0549998 9478288
0.30500007 2.075 5.0750003 9478288
0.47500005 1.975 4.7449999 7372928
0.48500007 1.975 4.7350001 7372928
0.46500006 1.985 4.7649999 7372928
0.45500007 1.975 4.7750001 7372928
0.46500006 1.975 4.7750001 7372928
0.48500007 1.995 4.7449999 7372928
0.45500007 1.995 4.7849998 7372928
0.34500006 2.155 4.4850001 10530992
0.35500005 2.155 4.4749999 10530992
0.36500007 2.155 4.4749999 10530992
0.33500007 2.165 4.5149999 10530992
0.34500006 2.165 4.5250001 10530992
0.33500007 2.155 4.5349998 10530992
0.34500006 2.155 4.5349998 10530992
0.35500005 2.165 4.5149999 10530992
0.36500007 2.165 4.5149999 10530992
0.35500005 2.165 4.5450001 10530992
0.37500006 2.165 4.4949999 10530992
0.38500005 2.175 4.4850001 10530992
0.40500006 2.1849999 4.5050001 10530992
0.37500006 2.165 4.5149999 10530992
0.38500005 2.155 4.5349998 10530992
0.39500007 2.155 4.5250001 10530976
0.39500007 2.165 4.5250001 10530976
0.40500006 2.165 4.5450001 10530992
0.39500007 2.175 4.5250001 10530976
0.40500006 2.175 4.5149999 10530992
0.40500006 2.175 4.5349998 10530992
0.33500007 2.155 4.5549998 10530992
0.34500006 2.155 4.5549998 10530992
0.33500007 2.155 4.585 10530992
0.36500007 2.165 4.585 10530992
0.33500007 2.155 4.605 10530992
0.34500006 2.155 4.605 10530992
0.34500006 2.165 4.5950003 10530992
0.36500007 2.155 4.605 10530992
0.36500007 2.165 4.605 10530992
0.35500005 2.155 4.625 9482416
0.36500007 2.155 4.625 9478320
0.37500006 2.165 4.5549998 10530992
0.37500006 2.165 4.5650001 10530992
0.38500005 2.155 4.5549998 10530992
0.37500006 2.165 4.585 10530992
0.38500005 2.155 4.585 10530992
0.39500007 2.165 4.5650001 10530992
0.40500006 2.165 4.5650001 10530992
0.39500007 2.155 4.585 10530992
0.37500006 2.155 4.5950003 10530992
0.38500005 2.155 4.5950003 9478320
0.37500006 2.155 4.625 9482416
0.40500006 2.155 4.6150002 10530992
0.47500005 2.145 4.585 10530976
0.46500006 2.145 4.5950003 9478304
0.41500005 2.165 4.4749999 10530992
0.42500007 2.165 4.4749999 10530992
0.44500005 2.165 4.4749999 10530992
0.43500006 2.165 4.4949999 10530992
0.42500007 2.165 4.5250001 10530992
0.41500005 2.165 4.5450001 10530992
0.41500005 2.175 4.5149999 10530992
0.42500007 2.1849999 4.5250001 10530992
0.41500005 2.175 4.5450001 10530992
0.43500006 2.165 4.5349998 10530992
0.44500005 2.155 4.5349998 10530992
0.44500005 2.175 4.5349998 10530992
0.46500006 2.165 4.4850001 10530992
0.48500007 2.175 4.4850001 10530992
0.45500007 2.175 4.5149999 10530992
0.45500007 2.175 4.5450001 10530992
0.46500006 2.175 4.5450001 10530992
0.47500005 2.175 4.5250001 10530992
0.48500007 2.175 4.5349998 10530992
0.42500007 2.155 4.5650001 10530992
0.41500005 2.155 4.585 10530976
0.42500007 2.155 4.5750003 10530992
0.43500006 2.155 4.5549998 10530992
0.44500005 2.165 4.5750003 10530992
0.41500005 2.155 4.5950003 9478304
0.42500007 2.155 4.605 10530992
0.41500005 2.155 4.625 9478304
0.42500007 2.155 4.625 9478304
0.43500006 2.165 4.605 9478304
0.44500005 2.155 4.605 10530976
0.44500005 2.165 4.5950003 10526880
0.43500006 2.165 4.6150002 9478304
0.45500007 2.165 4.5549998 10530992
0.46500006 2.165 4.5549998 10530976
0.45500007 2.165 4.5750003 10530976
0.46500006 2.155 4.585 10530976
0.47500005 2.165 4.5650001 10530976
0.48500007 2.165 4.5549998 10530976
0.47500005 2.155 4.5750003 10530976
0.48500007 2.155 4.5750003 10530976
0.48500007 2.165 4.5750003 10530976
0.46500006 2.155 4.625 9478304
0.48500007 2.155 4.605 9478304
0.47500005 2.155 4.625 9478304
0.33500007 2.145 4.7449999 9478304
0.35500005 2.145 4.7249999 9478304
0.33500007 2.145 4.7750001 9478304
0.34500006 2.145 4.7849998 9478304
0.36500007 2.145 4.7550001 9478304
0.36500007 2.145 4.7849998 9478304
0.37500006 2.145 4.7550001 9478304
0.38500005 2.145 4.7550001 9478304
0.37500006 2.145 4.7849998 8425616
0.38500005 2.145 4.7750001 8425616
0.39500007 2.145 4.7550001 8425616
0.40500006 2.145 4.7849998 8425616
0.33500007 2.155 4.6350002 9482416
0.34500006 2.155 4.645 9478320
0.35500005 2.155 4.6550002 9478320
0.36500007 2.155 4.6550002 9478304
0.34500006 2.155 4.6849999 9478304
0.34500006 2.155 4.7049999 9478304
0.35500005 2.155 4.6849999 9478304
0.36500007 2.155 4.6849999 9478304
0.35500005 2.155 4.7049999 9478304
0.38500005 2.155 4.6350002 10530992
0.37500006 2.155 4.6550002 9478304
0.40500006 2.155 4.6350002 9478304
0.39500007 2.155 4.665 9478304
0.40500006 2.155 4.665 9478304
0.37500006 2.155 4.7049999 9478304
0.38500005 2.155 4.6950002 9478304
0.40500006 2.155 4.6849999 9478304
0.39500007 2.155 4.6950002 9478304
0.40500006 2.155 4.7049999 9478304
0.33500007 2.155 4.7150002 9478304
0.33500007 2.155 4.7350001 9478304
0.34500006 2.155 4.7449999 9478304
0.34500006 2.155 4.7649999 9478304
0.38500005 2.155 4.7150002 9478304
0.37500006 2.155 4.7350001 9478304
0.38500005 2.155 4.7350001 9478304
0.39500007 2.155 4.7150002 9478304
0.39500007 2.155 4.7350001 9478304
0.44500005 2.145 4.6950002 9478304
0.41500005 2.145 4.7249999 9478304
0.42500007 2.145 4.7249999 9478288
0.43500006 2.145 4.7449999 9478288
0.42500007 2.145 4.7550001 9474192
0.42500007 2.145 4.7750001 9478304
0.43500006 2.135 4.7649999 9478288
0.45500007 2.145 4.7550001 9478304
0.45500007 2.145 4.7750001 9478288
0.48500007 2.145 4.7550001 9478304
0.41500005 2.155 4.6550002 9482416
0.42500007 2.155 4.665 9478304
0.44500005 2.165 4.645 10530992
0.44500005 2.155 4.665 9478304
0.41500005 2.155 4.6849999 9478304
0.42500007 2.155 4.7049999 9478304
0.43500006 2.155 4.6849999 9478304
0.44500005 2.155 4.6750002 9478304
0.43500006 2.155 4.7049999 9478304
0.45500007 2.155 4.6350002 9478304
0.48500007 2.155 4.665 9478304
0.45500007 2.155 4.6849999 9478304
0.45500007 2.165 4.6750002 9478304
0.46500006 2.165 4.6750002 9478304
0.45500007 2.155 4.7049999 8425616
0.48500007 2.155 4.6849999 9478288
0.47500005 2.155 4.6950002 9478304
0.48500007 2.155 4.7049999 9478288
0.43500006 2.155 4.7350001 8425616
0.44500005 2.155 4.7350001 8429712
0.41500005 2.155 4.7649999 8425616
0.41500005 2.155 4.7849998 9478288
0.47500005 2.155 4.7449999 9478304
0.47500005 2.165 4.7350001 8425616
0.48500007 2.155 4.7350001 9478304
0.46500006 2.155 4.7849998 9478304
0.47500005 2.155 4.7750001 9478304
0.64500004 1.965 4.5450001 10526880
0.63500005 1.965 4.5650001 10526880
0.63500005 1.975 4.5549998 9478288
0.64500004 1.985 4.5549998 9478304
0.62500006 1.975 4.605 8425616
0.62500006 1.985 4.5950003 7372928
0.53500009 1.965 4.6950002 7372928
0.54500008 1.965 4.6950002 7372912
0.53500009 1.985 4.7049999 7372928
0.54500008 1.975 4.6950002 7372928
0.55500007 1.975 4.6849999 7372928
0.50500005 1.985 4.7449999 7372928
0.50500005 1.975 4.7550001 7372928
0.56500006 1.975 4.7150002 6320224
0.56500006 1.995 4.7049999 7372928
0.60500008 1.985 4.645 7372928
0.59500009 1.975 4.665 7372928
0.57500005 1.985 4.6750002 7372928
0.58500004 1.985 4.6750002 7372928
0.57500005 1.975 4.6950002 7372912
0.59500009 1.975 4.6849999 9474192
0.60500008 1.985 4.6750002 7372928
0.61500007 1.985 4.645 7372928
0.62500006 1.985 4.665 10530992
0.58500004 1.995 4.665 7372928
0.60500008 2.0050001 4.665 7372928
0.58500004 2.0150001 4.6849999 7372928
0.59500009 1.995 4.6750002 7372928
0.59500009 2.0150001 4.6849999 7372928
0.61500007 1.995 4.6350002 7372928
0.50500005 2.145 4.4749999 10530976
0.49500006 2.175 4.4949999 10530992
0.50500005 2.175 4.5050001 10530992
0.51500005 2.155 4.4749999 10530992
0.52500004 2.155 4.4949999 10530976
0.50500005 2.155 4.5250001 10530976
0.50500005 2.165 4.5149999 10530976
0.49500006 2.165 4.5349998 10530976
0.49500006 2.1849999 4.5250001 10530992
0.49500006 2.175 4.5349998 10530992
0.51500005 2.155 4.5149999 10530976
0.52500004 2.155 4.5250001 10530976
0.53500009 2.155 4.5050001 10530976
0.53500009 2.175 4.4850001 10530992
0.54500008 2.175 4.4749999 10530992
0.53500009 2.175 4.5050001 10530992
0.55500007 2.165 4.4749999 10530992
0.56500006 2.165 4.4949999 10530992
0.54500008 2.165 4.5450001 10530976
0.55500007 2.165 4.5250001 10530976
0.56500006 2.155 4.5250001 10530976
0.56500006 2.165 4.5149999 10530976
0.55500007 2.165 4.5450001 10530976
0.56500006 2.155 4.5450001 10530976
0.55500007 2.175 4.5149999 10530992
0.49500006 2.165 4.5650001 10530976
0.50500005 2.165 4.5650001 10530976
0.49500006 2.155 4.585 10530976
0.51500005 2.165 4.5650001 10530976
0.49500006 2.155 4.605 9482400
0.50500005 2.155 4.625 9478304
0.51500005 2.165 4.5950003 9482400
0.52500004 2.155 4.605 9478304
0.52500004 2.165 4.5950003 10530976
0.51500005 2.155 4.6150002 9482400
0.51500005 2.155 4.625 9478304
0.54500008 2.155 4.5549998 10530976
0.53500009 2.155 4.585 10530976
0.53500009 2.165 4.5750003 10530976
0.54500008 2.155 4.585 9478304
0.55500007 2.155 4.5650001 10530976
0.56500006 2.165 4.585 9478304
0.53500009 2.155 4.5950003 9478304
0.54500008 2.155 4.605 9478304
0.56500006 2.155 4.5950003 9478288
0.55500007 2.155 4.625 9478288
0.57500005 2.165 4.4749999 10530992
0.57500005 2.155 4.5050001 10530976
0.57500005 2.165 4.4949999 10530992
0.58500004 2.155 4.5050001 10530976
0.58500004 2.165 4.5050001 10530992
0.58500004 2.175 4.4850001 10530992
0.59500009 2.165 4.4949999 10530976
0.60500008 2.175 4.4850001 10530992
0.59500009 2.175 4.4949999 10530992
0.57500005 2.155 4.5149999 10530976
0.60500008 2.175 4.5349998 10530992
0.61500007 2.165 4.5050001 10530992
0.61500007 2.1849999 4.4749999 10530992
0.62500006 2.175 4.4949999 10530992
0.62500006 2.175 4.5050001 10530992
0.63500005 2.1849999 4.4749999 10530992
0.64500004 2.175 4.4749999 10530992
0.63500005 2.175 4.4949999 10530992
0.63500005 2.175 4.5050001 10530976
0.64500004 2.175 4.4949999 10530992
0.62500006 2.165 4.5250001 10530976
0.61500007 2.175 4.5349998 10530976
0.64500004 2.175 4.5149999 10530976
0.63500005 2.175 4.5349998 10530976
0.58500004 2.155 4.5549998 10530976
0.57500005 2.155 4.585 9478304
0.59500009 2.155 4.5549998 10530976
0.59500009 2.165 4.5549998 10530976
0.60500008 2.175 4.5549998 10530976
0.60500008 2.175 4.585 9478304
0.57500005 2.155 4.5950003 9478288
0.58500004 2.165 4.605 9478288
0.58500004 2.155 4.6150002 9478288
0.58500004 2.155 4.625 9478304
0.59500009 2.165 4.605 9478288
0.61500007 2.175 4.5650001 10530976
0.64500004 2.165 4.5750003 9478304
0.63500005 2.175 4.5650001 10530976
0.64500004 2.175 4.5650001 9478304
0.63500005 2.175 4.585 9478288
0.62500006 2.175 4.5950003 9478288
0.62500006 2.175 4.625 9478304
0.64500004 2.165 4.5950003 10526880
0.63500005 2.175 4.6150002 9478304
0.51500005 2.145 4.6550002 9478288
0.50500005 2.145 4.6750002 9478288
0.50500005 2.145 4.6849999 9478304
0.52500004 2.145 4.6950002 9478304
0.53500009 2.145 4.6849999 9478304
0.53500009 2.145 4.7049999 9478304
0.54500008 2.145 4.6950002 9478304
0.54500008 2.145 4.7049999 9478304
0.56500006 2.145 4.6950002 9478304
0.56500006 2.145 4.7049999 9478304
0.50500005 2.145 4.7449999 9478304
0.51500005 2.145 4.7249999 9478304
0.52500004 2.145 4.7150002 9478304
0.49500006 2.145 4.7849998 9478304
0.50500005 2.145 4.7750001 9478304
0.51500005 2.145 4.7550001 9478304
0.52500004 2.145 4.7550001 9478288
0.51500005 2.145 4.7750001 9478288
0.53500009 2.145 4.7350001 9478304
0.55500007 2.145 4.7350001 9478304
0.56500006 2.145 4.7350001 9478304
0.54500008 2.145 4.7750001 9478288
0.55500007 2.145 4.7649999 9478304
0.56500006 2.145 4.7649999 9478304
0.55500007 2.135 4.7849998 9478304
0.49500006 2.155 4.6350002 9478304
0.50500005 2.155 4.645 9478304
0.49500006 2.155 4.665 9478304
0.51500005 2.155 4.645 8425616
0.52500004 2.155 4.6350002 9478304
0.52500004 2.155 4.645 9478288
0.49500006 2.155 4.6750002 8425616
0.49500006 2.155 4.7049999 9478304
0.54500008 2.165 4.645 9478288
0.54500008 2.155 4.665 9478288
0.56500006 2.155 4.6350002 9478288
0.55500007 2.155 4.6550002 9478304
0.56500006 2.155 4.6550002 9478304
0.53500009 2.155 4.6849999 9478304
0.54500008 2.155 4.6849999 9478304
0.55500007 2.155 4.6750002 9478304
0.50500005 2.155 4.7350001 9478304
0.57500005 2.145 4.7049999 9478304
0.62500006 2.145 4.6750002 9478304
0.62500006 2.145 4.6849999 9478304
0.61500007 2.145 4.7049999 9478304
0.62500006 2.135 4.7049999 9478304
0.63500005 2.145 4.6849999 9478304
0.63500005 2.135 4.7049999 9478304
0.64500004 2.145 4.6950002 9478304
0.57500005 2.145 4.7249999 9478304
0.57500005 2.145 4.7449999 9478304
0.59500009 2.145 4.7249999 9478304
0.60500008 2.145 4.7249999 9478304
0.59500009 2.145 4.7449999 9478288
0.60500008 2.135 4.7449999 9478304
0.60500008 2.145 4.7350001 9478304
0.58500004 2.135 4.7649999 9478304
0.57500005 2.135 4.7849998 9478304
0.58500004 2.135 4.7849998 9478288
0.60500008 2.125 4.7750001 9478288
0.59500009 2.135 4.7550001 9478304
0.59500009 2.135 4.7750001 9478288
0.61500007 2.145 4.7249999 9478304
0.62500006 2.135 4.7249999 9478304
0.61500007 2.135 4.7350001 9478304
0.64500004 2.135 4.7249999 9478304
0.61500007 2.135 4.7550001 9478304
0.62500006 2.135 4.7849998 9478288
0.63500005 2.135 4.7550001 9478304
0.64500004 2.135 4.7550001 9478288
0.64500004 2.135 4.7849998 9478288
0.57500005 2.155 4.6350002 9478304
0.58500004 2.155 4.665 9478304
0.60500008 2.155 4.6350002 9478304
0.59500009 2.155 4.6550002 9478304
0.60500008 2.155 4.6550002 9478304
0.60500008 2.175 4.6350002 9478304
0.57500005 2.155 4.6849999 9478304
0.58500004 2.155 4.6849999 9478304
0.60500008 2.155 4.6750002 9478304
0.59500009 2.155 4.6950002 9478304
0.61500007 2.165 4.645 9478304
0.61500007 2.155 4.6550002 9478304
0.61500007 2.175 4.645 9478304
0.64500004 2.165 4.6350002 9478304
0.63500005 2.155 4.665 9478304
0.63500005 2.165 4.6550002 9478304
0.64500004 2.155 4.665 9478304
0.64500004 2.165 4.6550002 9478304
0.63500005 2.175 4.645 9478304
0.63500005 2.155 4.6750002 9478304
0.64500004 2.155 4.6750002 9478304
0.58500004 2.155 4.7150002 9478304
0.60500008 2.155 4.7150002 9478304
0.34500006 1.955 4.8450003 6320240
0.34500006 1.965 4.8450003 6320240
0.34500006 1.985 4.8650002 7372912
0.40500006 1.975 4.8250003 7377040
0.38500005 2.0150001 4.8650002 7372928
0.40500006 2.0150001 4.8650002 7372928
0.33500007 1.995 4.875 9478288
0.37500006 2.0250001 4.8850002 8425616
0.40500006 2.0550001 4.9349999 8425616
0.41500005 1.965 4.8049998 7372928
0.42500007 1.975 4.8049998 7372928
0.42500007 1.985 4.8049998 7372928
0.41500005 1.975 4.8150001 7372928
0.44500005 1.975 4.8049998 7372928
0.44500005 1.985 4.7950001 7372928
0.41500005 1.995 4.8150001 7372928
0.44500005 2.0050001 4.8150001 7372928
0.42500007 2.0350001 4.8850002 7372912
0.41500005 2.0350001 4.895 8425600
0.33500007 2.0550001 5.0050001 9474192
0.33500007 2.145 4.7950001 9478304
0.35500005 2.145 4.8150001 8425616
0.36500007 2.145 4.8150001 8425616
0.36500007 2.145 4.8250003 8425616
0.35500005 2.145 4.835 8425616
0.35500005 2.135 4.855 9478304
0.36500007 2.135 4.8650002 9478288
0.36500007 2.145 4.855 9478304
0.37500006 2.145 4.8150001 8425616
0.40500006 2.145 4.8150001 9478304
0.38500005 2.135 4.8450003 9478304
0.39500007 2.125 4.8650002 9478288
0.40500006 2.125 4.855 9478288
0.40500006 2.135 4.8450003 9478288
0.33500007 2.125 4.8850002 8425616
0.33500007 2.115 4.895 9478288
0.34500006 2.115 4.895 9478288
0.35500005 2.125 4.8850002 8425616
0.33500007 2.115 4.915 9478288
0.34500006 2.115 4.9250002 9478288
0.35500005 2.125 4.915 8425616
0.36500007 2.125 4.9349999 8429712
0.38500005 2.125 4.8850002 8425616
0.37500006 2.135 4.9050002 8425600
0.39500007 2.125 4.875 9478288
0.40500006 2.125 4.875 8429712
0.41500005 2.145 4.8150001 9478288
0.41500005 2.145 4.8250003 9478304
0.43500006 2.145 4.8049998 9478304
0.44500005 2.145 4.8049998 9478288
0.42500007 2.125 4.8650002 9478288
0.41500005 2.135 4.835 9478288
0.43500006 2.125 4.8650002 9478288
0.44500005 2.115 4.8650002 8429712
0.44500005 2.125 4.855 9478288
0.43500006 2.145 4.835 9478304
0.44500005 2.145 4.835 9478288
0.43500006 2.135 4.855 9478288
0.45500007 2.135 4.7950001 9478288
0.46500006 2.145 4.8049998 9478304
0.45500007 2.135 4.8250003 9478288
0.46500006 2.135 4.8150001 9478288
0.48500007 2.125 4.8250003 8429712
0.48500007 2.145 4.8049998 9478304
0.48500007 2.125 4.8450003 9478288
0.47500005 2.125 4.855 9478288
0.47500005 2.135 4.835 9478288
0.42500007 2.125 4.8850002 8429712
0.41500005 2.125 4.9050002 8429712
0.42500007 2.125 4.9050002 8425616
0.43500006 2.125 4.875 8429712
0.48500007 2.155 4.8049998 9478304
0.33500007 2.105 5.0050001 8425616
0.36500007 2.085 5.0149999 9474192
0.34500006 2.115 4.9549999 8425616
0.36500007 2.115 4.9549999 8425616
0.37500006 2.105 4.9650002 8425616
0.38500005 2.105 4.9650002 8425616
0.39500007 2.075 4.9850001 8425616
0.40500006 2.085 4.9850001 8425616
0.39500007 2.105 4.9850001 8425616
0.40500006 2.105 4.9850001 9474192
0.37500006 2.085 5.0050001 8425616
0.39500007 2.095 4.9949999 9474192
0.37500006 2.115 4.9549999 8429712
0.38500005 2.115 4.9549999 8425616
0.40500006 2.115 4.9549999 8425616
0.40500006 2.115 4.9749999 9478288
0.41500005 2.085 4.9749999 8425616
0.44500005 2.085 4.9650002 9474192
0.43500006 2.085 4.9749999 9474192
0.41500005 2.105 4.9949999 9474192
0.50500005 2.135 4.7950001 9478304
0.52500004 2.145 4.7950001 9478288
0.52500004 2.135 4.8150001 9478288
0.49500006 2.125 4.855 8429712
0.52500004 2.135 4.835 9478288
0.56500006 2.105 4.8450003 9478288
0.56500006 2.105 4.8650002 8429712
0.54500008 2.145 4.8049998 9478304
0.53500009 2.135 4.8250003 9478288
0.54500008 2.135 4.8250003 9478288
0.56500006 2.135 4.8150001 9478304
0.53500009 2.135 4.8450003 9478288
0.54500008 2.135 4.8650002 9478288
0.56500006 2.125 4.8450003 9478288
0.55500007 2.115 4.8650002 9478288
0.55500007 2.125 4.8650002 9478288
0.55500007 2.135 4.8450003 9478288
0.56500006 2.135 4.835 9478288
0.50500005 2.125 4.875 9478288
0.55500007 2.105 4.8850002 8425616
0.54500008 2.115 4.895 9478288
0.54500008 2.125 4.895 9478288
0.55500007 2.115 4.8850002 8429712
0.53500009 2.155 4.7950001 9478304
0.57500005 2.105 4.835 9478288
0.57500005 2.105 4.855 9478288
0.59500009 2.095 4.8450003 9478288
0.57500005 2.135 4.8049998 9478288
0.58500004 2.135 4.8049998 9478288
0.60500008 2.135 4.8150001 9478288
0.57500005 2.125 4.8450003 9478288
0.57500005 2.135 4.835 9478288
0.58500004 2.135 4.835 9478288
0.59500009 2.115 4.855 9478288
0.59500009 2.125 4.855 9478288
0.60500008 2.135 4.835 9478288
0.62500006 2.105 4.8250003 9474192
0.61500007 2.135 4.8049998 9478288
0.62500006 2.135 4.8150001 9478288
0.64500004 2.115 4.8150001 9478288
0.64500004 2.125 4.8250003 9478288
0.63500005 2.135 4.7950001 9478288
0.64500004 2.135 4.8150001 9478288
0.62500006 2.125 4.835 9478288
0.61500007 2.115 4.855 9478288
0.61500007 2.125 4.855 9478288
0.61500007 2.135 4.835 9478288
0.60500008 2.085 5.0450001 8425616
0.60500008 2.085 5.085 8425600
0.92500007 1.6950001 4.085 6320224
0.92500007 1.715 4.125 7372928
0.92500007 1.725 4.125 10526880
0.91500008 1.715 4.145 7368816
0.92500007 1.725 4.145 9478304
0.92500007 1.735 4.1150002 9478304
0.92500007 1.735 4.145 10526880
0.92500007 1.745 4.1350002 10530976
0.94500005 1.735 4.105 9478304
0.94500005 1.745 4.105 10530976
0.95500004 1.735 4.105 9474192
0.95500004 1.745 4.105 10530976
0.96500003 1.735 4.0950003 7372928
0.96500003 1.735 4.105 7372912
0.96500003 1.745 4.0950003 9478304
0.93500006 1.725 4.1150002 10530976
0.94500005 1.725 4.1150002 7372912
0.93500006 1.735 4.1150002 10526880
0.93500006 1.745 4.1150002 10530976
0.94500005 1.7550001 4.105 10530976
0.95500004 1.7550001 4.105 10526880
0.93500006 1.7550001 4.1350002 10530976
0.94500005 1.7750001 4.145 10530992
0.80500007 1.745 4.2550001 10526880
0.77500004 1.745 4.3049998 9478304
0.78500009 1.745 4.3049998 9478304
0.80500007 1.745 4.2849998 10530976
0.79500008 1.745 4.2950001 9478288
0.80500007 1.745 4.3049998 7372928
0.72500008 1.745 4.3650002 9482400
0.72500008 1.745 4.3850002 7372928
0.68500006 1.745 4.4250002 9478304
0.66500008 1.745 4.4349999 9478304
0.65500003 1.745 4.4549999 9478304
0.67500007 1.745 4.4450002 7372912
0.68500006 1.745 4.4450002 7372912
0.70500004 1.745 4.395 10530976
0.69500005 1.745 4.415 7372928
0.70500004 1.745 4.415 7372912
0.71500003 1.745 4.395 8425616
0.74500006 1.735 4.3450003 8425600
0.76500005 1.745 4.335 9478288
0.73500007 1.735 4.3650002 7372912
0.73500007 1.745 4.355 9478304
0.75500005 1.745 4.375 7372912
0.77500004 1.735 4.3150001 7372928
0.77500004 1.735 4.3250003 6320240
0.78500009 1.735 4.3150001 7372912
0.79500008 1.745 4.335 7372912
0.77500004 1.745 4.3650002 6324336
0.79500008 1.7550001 4.2649999 9478304
0.78500009 1.7550001 4.2950001 10526880
0.79500008 1.7550001 4.2950001 9478304
0.72500008 1.7650001 4.3650002 9478288
0.71500003 1.7550001 4.3850002 10530976
0.68500006 1.7550001 4.415 10530976
0.65500003 1.7550001 4.4549999 10530976
0.67500007 1.7550001 4.4349999 10530976
0.67500007 1.7650001 4.4349999 9478304
0.70500004 1.7650001 4.4050002 10530976
0.69500005 1.7550001 4.415 9478304
0.74500006 1.7550001 4.3450003 9482400
0.75500005 1.7550001 4.3450003 10530976
0.75500005 1.7650001 4.3450003 9478304
0.76500005 1.7550001 4.335 10530976
0.73500007 1.7550001 4.355 9478304
0.84500009 1.735 4.2049999 9478304
0.83500004 1.745 4.2249999 9478304
0.84500009 1.735 4.2150002 8425600
0.86500007 1.745 4.1849999 10530992
0.87500006 1.745 4.1849999 9478304
0.88500005 1.735 4.1750002 9478304
0.88500005 1.735 4.1849999 10526880
0.85500008 1.735 4.2049999 9478304
0.85500008 1.745 4.1950002 10530976
0.86500007 1.735 4.2049999 10530976
0.86500007 1.735 4.2249999 7372912
0.87500006 1.735 4.1950002 9478304
0.87500006 1.735 4.2150002 7372912
0.87500006 1.735 4.2249999 7372928
0.81500006 1.745 4.2550001 9478304
0.81500006 1.745 4.2649999 9478304
0.82500005 1.735 4.2649999 8425600
0.83500004 1.745 4.2350001 9478288
0.83500004 1.745 4.2550001 9478304
0.83500004 1.745 4.2649999 7372912
0.84500009 1.745 4.2649999 7372912
0.81500006 1.745 4.2950001 7368816
0.85500008 1.735 4.2550001 7372912
0.89500004 1.725 4.1750002 9478304
0.90500003 1.735 4.165 9478304
0.90500003 1.745 4.165 10530992
0.89500004 1.735 4.1750002 9478304
0.89500004 1.745 4.1750002 10530992
0.91500008 1.735 4.1550002 9478288
0.91500008 1.745 4.1550002 9478304
0.87500006 1.7550001 4.1849999 10530976
0.88500005 1.7550001 4.1750002 10526880
0.82500005 1.7550001 4.2449999 9478304
0.90500003 1.7550001 4.165 10530976
0.91500008 1.7550001 4.1550002 9478288
0.92500007 1.7650001 4.165 9478304
0.94500005 1.7850001 4.1750002 11579568
1.125 1.735 3.835 6320224
1.115 1.745 3.875 9474192
1.125 1.745 3.875 9478288
1.125 1.745 3.905 9478304
1.085 1.745 3.9850001 8425616
1.105 1.725 3.925 7372912
1.095 1.745 3.9650002 9478288
1.105 1.735 3.9550002 7372912
1.105 1.745 3.9550002 8421504
1.095 1.745 3.9850001 7372928
1.105 1.735 3.9750001 6320224
1.105 1.745 3.9750001 8421504
1.125 1.745 3.9550002 7372912
1.0250001 1.735 4.0250001 7372912
1.0250001 1.745 4.0250001 9478288
1.0350001 1.725 4.0149999 7372912
1.0450001 1.745 4.0050001 9478304
1.0350001 1.745 4.0250001 8425600
1.0450001 1.745 4.0149999 7372928
1.0150001 1.745 4.0650001 8429712
1.0250001 1.745 4.0549998 8421504
0.97500008 1.725 4.0950003 7368816
0.97500008 1.735 4.085 6320224
0.97500008 1.745 4.085 10530976
0.98500007 1.735 4.0750003 7368816
0.98500007 1.745 4.0750003 8425616
0.99500006 1.735 4.085 7368816
0.99500006 1.745 4.0750003 7372912
1.0050001 1.745 4.0750003 7368816
1.0250001 1.745 4.085 7372912
1.0550001 1.745 4.0050001 9478288
1.0650001 1.745 4.0050001 8421504
1.0550001 1.735 4.0250001 7372912
1.0550001 1.745 4.0250001 7372912
1.075 1.745 4.0149999 7372928
1.0650001 1.745 4.0450001 7368800
1.075 1.745 4.0349998 7372912
1.085 1.745 4.0349998 7372912
1.0650001 1.7550001 3.9850001 9478304
1.075 1.7550001 3.9750001 9478304
1.075 1.7550001 3.9850001 9478304
1.085 1.7550001 3.9750001 9478304
1.115 1.7550001 3.915 9478304
1.115 1.7550001 3.9349999 9478288
1.115 1.7550001 3.9450002 9478304
1.125 1.7550001 3.9450002 8425616
1.095 1.7550001 3.9550002 10526880
1.105 1.7550001 3.9550002 9478304
1.125 1.7550001 3.9650002 7372912
1.0050001 1.7550001 4.0650001 9478304
1.0250001 1.7550001 4.0250001 9478304
1.0450001 1.7550001 4.0050001 9478304
1.0350001 1.7550001 4.0250001 10526880
1.0150001 1.7550001 4.0349998 10526880
1.0250001 1.7550001 4.0450001 10530976
1.0150001 1.7550001 4.0549998 9478304
0.97500008 1.7550001 4.0750003 10530976
0.98500007 1.7550001 4.0750003 9478304
0.99500006 1.7550001 4.0750003 9478304
1.0550001 1.7550001 4.0050001 10526880
1.0650001 1.7550001 3.9950001 9478304
1.075 1.7550001 3.9950001 9478304
1.1350001 1.735 3.865 9474192
1.1450001 1.735 3.855 9478288
1.1450001 1.745 3.855 9478288
1.1550001 1.735 3.855 9474192
1.1550001 1.745 3.865 9478288
1.1650001 1.735 3.855 6320224
1.1350001 1.735 3.885 9478288
1.1350001 1.745 3.895 9478304
1.1750001 1.735 3.845 6320224
1.1850001 1.745 3.835 9478288
1.1850001 1.745 3.845 9474192
1.1750001 1.745 3.865 9478288
1.1950001 1.745 3.835 9478288
1.205 1.745 3.835 8425600
1.1350001 1.745 3.915 7372912
1.1350001 1.745 3.925 7372912
1.1450001 1.735 3.915 7372912
1.1450001 1.745 3.9650002 7372912
1.1550001 1.745 3.9650002 7372896
1.215 1.745 3.845 5267536
1.1650001 1.7550001 3.865 9478288
1.1850001 1.7550001 3.835 9478288
1.1850001 1.7550001 3.845 9478288
1.1750001 1.7650001 3.865 9478288
1.1950001 1.7550001 3.835 9478288
1.215 1.7550001 3.835 9478288
1.2650001 1.7550001 3.855 7368800
1.2850001 1.7650001 3.905 9478272
1.2850001 1.7750001 3.9450002 9478288
1.2850001 1.7650001 3.9750001 6320224
1.2850001 1.7750001 3.9650002 6316112
0.72500008 1.965 4.4549999 7372928
0.76500005 1.985 4.4650002 8425600
0.78500009 1.975 4.4050002 8421504
0.79500008 1.975 4.395 8421504
0.79500008 1.975 4.4250002 8421504
0.78500009 1.985 4.4349999 8421504
0.78500009 1.975 4.4650002 6320240
0.80500007 1.985 4.4450002 7372912
0.80500007 1.995 4.4050002 7372928
0.79500008 1.995 4.4250002 7372928
0.78500009 1.995 4.4349999 7372928
0.77500004 1.995 4.4650002 8421504
0.66500008 2.145 4.355 11579568
0.65500003 2.155 4.375 10530992
0.67500007 2.165 4.3850002 11579568
0.70500004 2.155 4.3850002 11579568
0.66500008 2.165 4.4250002 11579568
0.67500007 2.165 4.4050002 11579568
0.65500003 2.175 4.4549999 10530992
0.66500008 2.175 4.4549999 11579568
0.68500006 2.175 4.4349999 11579568
0.69500005 2.1849999 4.4250002 11579568
0.70500004 2.175 4.4250002 11579568
0.72500008 2.165 4.395 10530976
0.71500003 2.165 4.415 11583664
0.71500003 2.175 4.4050002 10530976
0.70500004 2.175 4.4549999 10530992
0.70500004 2.1849999 4.4549999 11579568
0.72500008 2.175 4.4549999 10530992
0.77500004 2.165 4.3850002 11583664
0.74500006 2.155 4.4050002 10530976
0.75500005 2.165 4.395 10530976
0.74500006 2.1849999 4.4349999 10530976
0.73500007 2.175 4.4549999 10530976
0.75500005 2.155 4.4650002 11583664
0.76500005 2.165 4.4650002 11583664
0.75500005 2.175 4.4349999 10530976
0.75500005 2.175 4.4549999 10530976
0.76500005 2.175 4.4650002 10530976
0.86500007 1.965 4.3049998 8425600
0.87500006 1.975 4.3049998 8425600
0.95500004 1.965 4.2249999 9478304
0.90500003 1.975 4.2649999 8425600
0.92500007 1.965 4.2649999 9474192
0.89500004 1.985 4.2849998 8425600
0.90500003 1.975 4.2950001 8425600
0.91500008 1.975 4.2750001 8425600
0.91500008 1.975 4.2849998 11579568
0.92500007 1.975 4.2750001 11583664
0.94500005 1.965 4.2550001 8425616
0.93500006 1.975 4.2350001 11583664
0.93500006 1.975 4.2649999 9474192
0.95500004 1.995 4.2550001 8421504
0.93500006 1.995 4.2849998 8425616
0.95500004 1.995 4.2750001 8425616
0.81500006 1.965 4.375 8421504
0.82500005 1.985 4.3850002 8421504
0.83500004 1.965 4.375 7372912
0.84500009 1.975 4.3650002 8425600
0.83500004 1.985 4.3850002 8421504
0.84500009 1.975 4.3850002 8421504
0.85500008 1.965 4.3250003 8425600
0.86500007 1.965 4.3150001 8425600
0.85500008 1.975 4.3250003 8425600
0.88500005 1.985 4.3250003 8421504
0.88500005 1.975 4.3450003 8425600
0.86500007 1.965 4.355 8421504
0.85500008 1.975 4.355 8421504
0.85500008 1.975 4.3650002 8425600
0.88500005 1.985 4.3850002 8421504
0.81500006 1.975 4.395 8421504
0.81500006 1.985 4.395 7372928
0.86500007 2.0150001 4.3850002 7372912
0.83500004 2.0050001 4.4050002 8421504
0.82500005 2.0150001 4.4349999 7372928
0.88500005 2.0350001 4.4250002 7372928
0.90500003 1.985 4.3150001 8425616
0.89500004 1.985 4.335 8425616
0.90500003 1.985 4.3450003 8425600
0.91500008 1.975 4.3250003 11579568
0.92500007 1.975 4.3150001 8425600
0.89500004 1.985 4.355 8425600
0.91500008 1.985 4.355 11579568
0.92500007 1.985 4.355 9478288
0.89500004 1.985 4.395 8425600
0.92500007 2.0150001 4.3150001 8425600
0.90500003 2.0150001 4.3850002 8425600
0.98500007 1.985 4.1849999 10526880
1.0050001 1.985 4.1550002 9474192
1.0050001 1.995 4.165 13684944
1.0050001 1.995 4.1849999 10526880
0.98500007 1.995 4.2049999 10530992
0.97500008 2.0050001 4.2249999 8421504
0.98500007 2.0050001 4.2150002 8421504
0.99500006 2.0050001 4.1950002 10530976
1.0050001 2.0150001 4.1950002 15790320
1.0350001 2.0050001 4.165 9478304
1.0450001 1.995 4.165 9478288
1.0350001 1.995 4.1750002 10526880
0.97500008 2.0050001 4.2550001 8421504
0.97500008 1.995 4.2849998 10526880
0.98500007 2.0050001 4.2750001 11583664
1.0250001 2.0050001 4.2550001 15790320
1.0550001 2.0150001 4.2150002 10526880
0.65500003 1.965 4.5450001 6320224
0.66500008 1.975 4.5250001 7372912
0.66500008 1.985 4.5250001 8421504
0.65500003 1.975 4.5349998 8425600
0.67500007 1.975 4.5149999 7372928
0.68500006 1.975 4.5149999 7372928
0.68500006 1.975 4.5349998 7372928
0.71500003 1.985 4.4949999 7372928
0.72500008 1.975 4.5050001 7372912
0.69500005 1.975 4.5149999 7372928
0.71500003 1.985 4.5450001 7372928
0.67500007 1.985 4.5549998 7372928
0.65500003 1.995 4.5450001 9478288
0.66500008 1.995 4.5349998 9474192
0.67500007 1.995 4.5149999 8425600
0.68500006 1.995 4.5250001 7372912
0.70500004 1.995 4.5349998 7372928
0.72500008 2.0050001 4.5250001 7372928
0.71500003 1.995 4.5349998 7372928
0.70500004 1.995 4.5750003 7372912
0.70500004 2.0250001 4.5750003 6320240
0.72500008 1.995 4.5750003 7372912
0.71500003 2.0250001 4.5650001 7372912
0.69500005 1.995 4.605 7368816
0.74500006 1.975 4.4749999 8421504
0.73500007 1.975 4.4949999 7372928
0.75500005 1.975 4.4850001 7372928
0.75500005 1.985 4.4749999 7372928
0.74500006 1.995 4.5050001 7372928
0.73500007 2.0050001 4.5149999 7372928
0.75500005 2.0150001 4.5149999 7372928
0.75500005 2.0250001 4.5450001 7372912
0.77500004 2.0250001 4.5450001 7372928
0.74500006 1.995 4.5950003 6320224
0.73500007 2.0150001 4.6150002 6320224
0.74500006 2.0250001 4.7449999 8425600
0.70500004 2.145 4.5349998 10530976
0.72500008 2.145 4.6150002 10530976
0.65500003 2.175 4.4949999 10530992
0.68500006 2.1849999 4.4850001 10530992
0.67500007 2.1849999 4.5050001 10530992
0.68500006 2.175 4.5050001 10530976
0.68500006 2.1849999 4.5050001 10530992
0.65500003 2.165 4.5450001 9478288
0.66500008 2.175 4.5149999 10530992
0.66500008 2.175 4.5250001 9478304
0.65500003 2.175 4.5349998 10530976
0.67500007 2.165 4.5250001 9478304
0.68500006 2.155 4.5149999 10530976
0.67500007 2.155 4.5349998 10530976
0.67500007 2.155 4.5450001 10530976
0.67500007 2.175 4.5149999 10530976
0.69500005 2.175 4.4850001 10530992
0.69500005 2.1849999 4.4850001 10530992
0.70500004 2.175 4.4850001 10530976
0.69500005 2.175 4.5050001 9478304
0.71500003 2.175 4.4850001 10530976
0.71500003 2.1849999 4.4850001 11579568
0.70500004 2.155 4.5250001 10530976
0.69500005 2.155 4.5450001 10530976
0.70500004 2.175 4.5349998 10530976
0.71500003 2.165 4.5349998 10530976
0.71500003 2.1849999 4.5349998 9478304
0.72500008 2.1849999 4.5349998 10530976
0.72500008 2.1849999 4.5450001 10530992
0.66500008 2.155 4.5549998 10530976
0.65500003 2.155 4.585 10526880
0.65500003 2.165 4.5750003 10526880
0.66500008 2.175 4.5549998 9478304
0.67500007 2.155 4.5750003 10530976
0.68500006 2.155 4.585 10530976
0.66500008 2.155 4.605 10526880
0.65500003 2.165 4.625 10526880
0.67500007 2.155 4.605 10526880
0.68500006 2.155 4.605 10530976
0.67500007 2.155 4.625 10530976
0.69500005 2.155 4.5750003 10530976
0.72500008 2.165 4.5750003 10530976
0.71500003 2.1849999 4.5549998 10530976
0.70500004 2.165 4.6150002 10530976
0.71500003 2.165 4.5950003 10530976
0.72500008 2.165 4.5950003 10530976
0.71500003 2.165 4.6150002 10530976
0.72500008 2.155 4.6150002 10530976
0.78500009 2.145 4.5050001 11583664
0.73500007 2.145 4.6150002 10530976
0.79500008 2.145 4.5950003 11583664
0.80500007 2.145 4.605 10530976
0.74500006 2.165 4.4850001 11579568
0.75500005 2.175 4.4850001 11583664
0.74500006 2.165 4.5250001 11579568
0.73500007 2.175 4.5149999 10530992
0.73500007 2.175 4.5349998 10530992
0.75500005 2.165 4.5149999 11583664
0.75500005 2.165 4.5450001 11579568
0.78500009 2.165 4.4749999 11579568
0.78500009 2.175 4.5050001 11583664
0.79500008 2.165 4.4949999 11579568
0.77500004 2.165 4.5250001 11583664
0.78500009 2.175 4.5450001 11583664
0.79500008 2.165 4.5149999 11583664
0.80500007 2.175 4.5149999 11579568
0.73500007 2.175 4.5650001 10530976
0.74500006 2.175 4.5650001 10530992
0.73500007 2.175 4.585 10530976
0.74500006 2.175 4.585 10530992
0.76500005 2.155 4.5549998 11579568
0.75500005 2.165 4.5750003 11579568
0.76500005 2.175 4.5549998 11579568
0.73500007 2.165 4.625 10530976
0.73500007 2.175 4.6150002 10530976
0.75500005 2.165 4.5950003 11579568
0.75500005 2.165 4.625 10530976
0.75500005 2.175 4.605 10530992
0.77500004 2.165 4.585 11579568
0.78500009 2.175 4.5650001 11583664
0.78500009 2.175 4.585 11583664
0.80500007 2.165 4.5549998 11583664
0.79500008 2.155 4.585 11583664
0.79500008 2.165 4.5750003 11583664
0.80500007 2.165 4.5750003 11583664
0.78500009 2.155 4.5950003 11579568
0.78500009 2.165 4.5950003 11583664
0.77500004 2.155 4.625 10530976
0.77500004 2.165 4.625 11579568
0.78500009 2.155 4.6150002 10530992
0.65500003 2.145 4.6750002 10530976
0.71500003 2.095 4.7049999 9478288
0.72500008 2.145 4.6350002 10530976
0.71500003 2.145 4.6750002 9478304
0.65500003 2.145 4.7150002 9478304
0.66500008 2.145 4.7249999 9478304
0.65500003 2.135 4.7350001 9478304
0.66500008 2.145 4.7449999 9478304
0.68500006 2.145 4.7449999 9478288
0.65500003 2.135 4.7649999 9478288
0.66500008 2.135 4.7849998 9478288
0.67500007 2.125 4.7849998 9478288
0.67500007 2.135 4.7649999 9478288
0.68500006 2.145 4.7649999 9478288
0.68500006 2.135 4.7750001 9478288
0.70500004 2.115 4.7449999 9478288
0.69500005 2.145 4.7449999 9478304
0.72500008 2.115 4.7150002 9478288
0.72500008 2.135 4.7449999 9478288
0.69500005 2.125 4.7649999 9478288
0.69500005 2.135 4.7550001 9478288
0.70500004 2.145 4.7550001 9478304
0.71500003 2.135 4.7649999 9478288
0.66500008 2.165 4.645 10530976
0.65500003 2.155 4.665 9478304
0.65500003 2.165 4.6550002 9478304
0.67500007 2.155 4.665 9478304
0.68500006 2.155 4.6550002 10530976
0.66500008 2.155 4.7049999 9478304
0.67500007 2.155 4.6750002 10530976
0.68500006 2.155 4.6849999 10530976
0.67500007 2.155 4.7049999 9478304
0.69500005 2.155 4.6350002 10530976
0.70500004 2.155 4.6350002 10530976
0.69500005 2.155 4.6550002 10530976
0.70500004 2.155 4.6550002 10530976
0.71500003 2.155 4.6350002 10530976
0.71500003 2.155 4.645 10530976
0.69500005 2.155 4.6849999 10530976
0.72500008 2.155 4.6750002 10530976
0.71500003 2.155 4.7049999 10530976
0.72500008 2.155 4.7049999 10530976
0.68500006 2.155 4.7350001 9478304
0.69500005 2.155 4.7249999 10530976
0.70500004 2.155 4.7150002 10530976
0.69500005 2.155 4.7350001 9478304
0.70500004 2.155 4.7350001 9478304
0.71500003 2.155 4.7350001 9478304
0.72500008 2.155 4.7550001 9478304
0.75500005 2.085 4.6350002 9478288
0.74500006 2.145 4.6350002 10530976
0.73500007 2.145 4.6750002 10530976
0.78500009 2.145 4.645 10530976
0.78500009 2.145 4.6550002 10530976
0.79500008 2.145 4.6350002 10530976
0.80500007 2.145 4.645 10530976
0.79500008 2.145 4.665 10530976
0.77500004 2.125 4.7049999 9478288
0.77500004 2.145 4.6750002 10530976
0.78500009 2.145 4.6849999 10530976
0.77500004 2.145 4.7049999 10526880
0.79500008 2.125 4.7049999 10530976
0.80500007 2.145 4.6849999 10530976
0.79500008 2.145 4.7049999 10530976
0.80500007 2.135 4.7049999 10526880
0.73500007 2.145 4.7449999 9478288
0.74500006 2.145 4.7449999 9478288
0.76500005 2.125 4.7150002 9478288
0.76500005 2.145 4.7249999 9478288
0.75500005 2.135 4.7350001 10526880
0.78500009 2.145 4.7150002 10530976
0.75500005 2.155 4.6350002 10530976
0.75500005 2.155 4.645 10530976
0.76500005 2.155 4.6350002 10530992
0.76500005 2.165 4.6350002 11579568
0.76500005 2.155 4.6550002 10530976
0.74500006 2.155 4.6750002 10530976
0.74500006 2.155 4.7049999 10530976
0.76500005 2.155 4.6849999 10530976
0.75500005 2.155 4.7049999 10526880
0.73500007 2.155 4.7350001 9478304
0.74500006 2.155 4.7350001 9478304
0.76500005 2.155 4.7150002 10530976
0.75500005 2.155 4.7350001 9478288
0.82500005 2.165 4.5750003 11583664
0.82500005 2.1849999 4.585 12632256
0.83500004 2.155 4.585 11583664
0.84500009 2.155 4.585 11583664
0.83500004 2.175 4.585 11583664
0.84500009 2.175 4.5750003 11583664
0.81500006 2.155 4.605 11583664
0.81500006 2.165 4.5950003 11583664
0.82500005 2.165 4.5950003 11583664
0.81500006 2.155 4.625 10530992
0.82500005 2.155 4.625 10530992
0.82500005 2.165 4.6150002 11583664
0.83500004 2.155 4.605 11583664
0.84500009 2.155 4.5950003 11583664
0.83500004 2.155 4.6150002 11579568
0.81500006 2.2050002 4.5549998 10530976
0.82500005 2.2050002 4.5549998 12636352
0.84500009 2.2050002 4.5650001 11583664
0.84500009 2.2150002 4.5650001 12632256
0.85500008 2.165 4.585 11583664
0.85500008 2.155 4.6150002 11579568
0.86500007 2.155 4.6150002 11583664
0.86500007 2.1849999 4.605 11583664
0.87500006 2.165 4.6150002 11583664
0.87500006 2.175 4.605 11583664
0.87500006 2.1849999 4.605 11583648
0.84500009 2.145 4.645 10530976
0.84500009 2.145 4.665 10530976
0.81500006 2.125 4.6849999 10530976
0.81500006 2.145 4.6950002 10530976
0.83500004 2.125 4.6750002 10530992
0.84500009 2.145 4.6950002 10530976
0.85500008 2.145 4.6350002 10530976
0.86500007 2.145 4.665 10530976
0.87500006 2.145 4.6550002 10530976
0.85500008 2.145 4.6849999 10530976
0.85500008 2.075 4.7249999 8425600
0.88500005 2.095 4.7750001 8421504
0.88500005 2.105 4.7750001 10530976
0.82500005 2.155 4.6550002 10530976
0.83500004 2.155 4.645 10530976
0.81500006 2.155 4.6849999 10530976
0.82500005 2.155 4.6950002 10530976
0.83500004 2.155 4.6750002 10530976
0.86500007 2.155 4.6350002 11583664
0.88500005 2.155 4.645 11579552
0.88500005 2.165 4.645 11583664
0.87500006 2.155 4.6550002 10530976
0.89500004 2.145 4.6550002 12636352
0.89500004 2.115 4.7750001 10526880
0.89500004 2.165 4.645 11583664
0.89500004 2.155 4.6550002 11579552
0.89500004 2.1849999 4.6350002 10530976
0.90500003 2.175 4.6350002 10530976
0.91500008 2.165 4.6550002 11583664
0.75500005 2.0650001 4.7950001 9478288
0.66500008 2.115 4.7950001 9478288
0.65500003 2.125 4.8250003 9478288
0.66500008 2.135 4.8049998 9478288
0.65500003 2.135 4.8150001 9478288
0.67500007 2.135 4.7950001 9478288
0.79500008 2.095 4.9450002 9478288
0.79500008 2.115 4.915 7368800
0.80500007 2.115 4.9450002 9478288
0.66500008 2.095 5.0250001 9478288
0.66500008 2.105 5.0149999 9474192
0.67500007 2.105 4.9949999 9478288
0.68500006 2.105 5.0250001 9478288
0.72500008 2.095 5.0149999 9478288
0.65500003 2.105 5.0450001 9478288
0.65500003 2.095 5.0650001 9474192
0.69500005 2.095 5.0349998 9478288
0.71500003 2.095 5.0349998 9478288
0.87500006 2.095 4.8049998 9478288
0.82500005 2.115 4.895 9478288
0.83500004 2.115 4.895 9478288
0.89500004 2.105 4.8049998 9478288
0.90500003 2.115 4.8049998 9478288
0.91500008 2.125 4.8250003 9478288
0.91500008 2.125 4.8450003 9478288
0.96500003 2.095 4.8450003 10530976
0.93500006 2.135 4.8049998 10526880
0.95500004 2.135 4.8049998 9478288
0.96500003 2.135 4.8049998 10526864
0.93500006 2.125 4.855 9478288
0.93500006 2.135 4.835 9478288
0.96500003 2.115 4.8650002 9478288
0.96500003 2.125 4.855 9478288
0.95500004 2.135 4.8450003 9478288
0.94500005 2.105 4.9250002 9478288
0.96500003 2.105 4.9349999 9478288
0.83500004 2.095 4.9949999 9478288
0.83500004 2.105 5.0450001 9478288
0.82500005 2.105 5.085 9478288
0.83500004 2.095 5.0750003 9478288
0.90500003 2.105 4.9850001 9478288
0.89500004 2.105 5.0250001 9478288
0.92500007 2.105 4.9949999 9478288
0.91500008 2.105 5.0250001 9478288
0.90500003 2.115 4.9749999 9478288
0.97500008 2.125 4.7750001 10526880
1.0050001 2.145 4.7649999 10530960
0.99500006 2.135 4.7849998 10530960
0.97500008 2.105 4.8650002 11583664
0.98500007 2.125 4.7950001 10526864
0.98500007 2.125 4.8250003 9478288
0.97500008 2.135 4.8049998 10526864
1.0050001 2.135 4.8049998 10526864
0.97500008 2.125 4.8450003 9478288
0.98500007 2.125 4.8450003 9478288
0.97500008 2.115 4.8650002 9478288
0.98500007 2.115 4.855 9478288
0.99500006 2.105 4.875 9478288
1.0050001 2.115 4.8850002 9478288
1.0150001 2.115 4.9050002 11583664
1.0450001 2.125 4.875 9478288
1.075 2.125 4.8150001 9478288
1.0550001 2.125 4.855 9478288
1.0550001 2.125 4.8650002 9478288
1.0650001 2.125 4.9050002 9478288
1.075 2.125 4.875 9478288
1.1650001 2.115 5.105 8425600
1.1850001 2.105 5.0950003 9478288
1.1950001 2.115 5.085 9478288
1.225 2.105 5.0250001 9478288
1.2850001 2.115 4.9650002 8425600
1.2850001 2.115 4.9949999 8425600
1.225 2.095 5.0650001 8425600
1.225 2.105 5.0549998 9478272
1.235 2.095 5.0349998 9478272
1.245 2.105 5.0450001 9478272
1.235 2.095 5.0650001 9478272
1.215 2.105 5.085 9478272
1.245 2.095 5.085 8425600
1.235 2.095 5.0950003 9478272
1.215 2.115 5.0750003 9474176
1.2550001 2.095 5.0650001 9478272
1.2650001 2.105 5.0549998 9478272
1.2550001 2.095 5.0950003 8425600
1.4250001 1.715 3.5050001 6320224
1.335 1.6750001 3.5550001 7372912
1.335 1.6950001 3.575 6320224
1.3150001 1.705 3.655 6320224
1.3050001 1.715 3.665 6320224
1.335 1.6850001 3.595 6320224
1.355 1.705 3.605 6320224
1.345 1.735 3.605 9478288
1.355 1.715 3.605 6320224
1.345 1.715 3.655 6320224
1.335 1.735 3.665 8425616
1.335 1.745 3.665 9478288
1.345 1.735 3.665 7372912
1.355 1.725 3.645 6320224
1.355 1.735 3.665 6320224
1.4050001 1.735 3.5350001 9478288
1.3950001 1.725 3.5650001 6320224
1.3950001 1.745 3.575 9478288
1.4050001 1.745 3.585 9478288
1.4350001 1.735 3.5450001 8425600
1.4250001 1.745 3.5550001 9478304
1.4150001 1.735 3.585 6316128
1.4150001 1.745 3.585 9478288
1.4350001 1.745 3.5650001 9478288
1.4350001 1.745 3.585 8425600
1.375 1.715 3.605 6320224
1.375 1.725 3.615 6320224
1.3850001 1.735 3.625 7372912
1.3950001 1.745 3.595 9478288
1.3950001 1.745 3.625 9478288
1.4050001 1.745 3.615 8425616
1.4050001 1.745 3.625 6320224
1.3850001 1.745 3.645 8421504
1.375 1.745 3.665 6320224
1.3950001 1.745 3.635 6320224
1.3050001 1.725 3.6950002 6320224
1.325 1.725 3.675 6320224
1.3150001 1.735 3.6849999 8421504
1.325 1.745 3.675 9478288
1.3150001 1.745 3.6950002 9478288
1.3150001 1.745 3.7150002 8425600
1.365 1.745 3.675 9474192
1.3050001 1.745 3.7550001 6320224
1.355 1.7550001 3.665 9478304
1.365 1.7550001 3.665 9478288
1.3850001 1.7550001 3.625 9478288
1.3950001 1.7550001 3.625 9478288
1.375 1.7550001 3.635 9478288
1.3850001 1.7550001 3.635 9478288
1.375 1.7550001 3.655 9478288
1.4250001 1.7550001 3.595 9478288
1.4350001 1.7550001 3.605 7372912
1.2950001 1.7550001 3.7350001 9478304
1.3050001 1.7550001 3.7450001 9478304
1.3150001 1.7550001 3.7150002 9478288
1.3150001 1.7550001 3.7350001 9478304
1.3150001 1.7650001 3.7350001 9478288
1.345 1.7550001 3.675 9478288
1.355 1.7550001 3.675 9478288
1.2950001 1.7550001 3.7550001 8425616
1.3050001 1.7550001 3.7550001 7372912
1.375 1.7550001 3.675 9478288
1.455 1.715 3.5150001 6320224
1.3150001 1.725 3.9850001 9478288
1.325 1.725 3.9850001 11583664
1.325 1.735 3.9850001 10530992
1.335 1.725 3.9850001 9478288
1.335 1.735 3.9850001 9478288
1.3150001 1.745 3.9950001 10530992
1.3150001 1.7850001 3.9450002 9478288
1.2950001 1.7750001 3.9650002 8425584
1.3050001 1.7850001 3.9550002 9474176
1.3050001 1.7750001 3.9750001 9478272
1.3150001 1.7550001 3.9750001 9478288
1.325 1.7550001 3.9850001 10530976
1.3150001 1.7750001 3.9650002 9478272
1.3150001 1.7850001 3.9650002 9474176
1.3150001 1.7750001 3.9850001 10530976
1.325 1.7750001 3.9850001 9478288
1.335 1.7550001 3.9750001 9478288
1.335 1.7550001 3.9850001 10526864
1.3050001 1.7650001 4.0050001 6320224
1.3050001 1.7750001 3.9950001 8425600
1.3150001 1.7550001 3.9950001 11583664
1.3150001 1.7650001 3.9950001 11583664
1.3150001 1.7650001 4.0250001 6320224
1.355 2.125 4.9250002 9478288
1.355 2.115 4.9450002 9478288
1.365 2.115 4.9349999 9478288
1.365 2.135 4.9250002 8425600
1.375 2.125 4.895 9478288
1.2950001 2.105 4.9650002 9478272
1.2950001 2.095 4.9749999 8425600
1.3050001 2.115 4.9549999 9474176
1.365 2.115 4.9749999 9478272
1.345 2.115 4.9949999 9478272
1.2950001 2.105 5.0650001 9478272
1.3050001 2.105 5.0650001 8425600
1.3150001 2.105 5.085 8425600
1.325 2.115 5.0750003 8425600
1.355 2.115 5.0349998 9478272
1.365 2.115 5.0750003 8425600
1.3850001 2.105 4.9549999 9478272
1.4050001 2.115 5.0050001 9478272
1.4150001 2.105 4.9949999 9478272
1.375 2.105 5.0650001 8425600
1.3850001 2.105 5.0549998 9478272
1.4050001 2.105 5.0549998 9478272
1.4050001 2.105 5.085 8429696
1.3950001 2.105 5.0950003 8425600
1.3850001 2.115 5.0950003 8425584
1.4150001 2.105 5.0549998 9478272
1.4450001 2.105 5.0650001 9478272
1.4250001 2.105 5.085 8429696
1.4350001 2.105 5.0750003 8425600
1.4450001 2.105 5.085 8425600
1.4150001 2.115 5.0450001 8425600
1.4250001 2.125 5.0549998 9478272
1.4350001 2.115 5.0450001 9478272
1.4350001 2.115 5.0650001 8425600
1.475 2.125 4.9349999 9478288
1.5450001 2.105 4.9250002 9478272
1.475 2.125 4.9749999 9478272
1.485 2.115 5.0149999 8425600
1.5150001 2.105 4.9949999 8425600
1.5150001 2.105 5.0250001 9478272
1.495 2.115 4.9650002 9478272
1.495 2.125 4.9850001 9478272
1.5250001 2.125 4.9549999 9478272
1.5150001 2.115 4.9749999 9478272
1.495 2.115 5.0050001 9478272
1.5050001 2.115 4.9949999 9478272
1.5250001 2.115 5.0250001 8425600
1.465 2.105 5.085 8425600
1.485 2.115 5.0750003 9474176
1.495 2.105 5.0549998 8425600
1.495 2.115 5.0349998 8425600
1.5050001 2.115 5.0349998 8429696
1.5150001 2.115 5.0650001 9474176
1.5250001 2.115 5.0650001 9474176
1.495 2.115 5.105 8425600
1.5050001 2.115 5.105 8425600
1.5250001 2.115 5.0950003 8425600
1.5650001 2.105 4.9549999 9478272
1.5350001 2.115 4.9549999 9478288
1.5350001 2.115 4.9850001 9478272
1.5450001 2.115 4.9850001 8425600
1.5550001 2.115 4.9749999 9474176
1.5650001 2.115 5.0050001 9478272
1.575 2.115 5.0050001 9474176
1.575 2.115 5.0450001 8425600
1.595 2.125 5.0549998 9478272
1.585 2.125 5.085 8425600
1.6550001 2.145 4.7049999 9478288
1.615 2.145 4.7750001 8425600
1.625 2.145 4.7750001 9478272
1.745 2.125 4.8850002 9478272
1.745 2.115 4.9050002 8425600
1.7550001 2.125 4.895 9478272
1.6450001 2.115 5.0450001 9474176
1.6350001 2.115 5.0650001 8425600
1.6350001 2.125 5.0549998 9474176
1.6350001 2.125 5.105 8425600
1.6650001 2.125 5.0650001 9474176
1.6550001 2.115 5.085 8425600
1.6650001 2.115 5.0750003 8425600
1.745 2.125 4.9850001 8429696
1.8050001 2.125 4.9850001 9478272
1.7750001 2.125 5.0149999 8425600
1.825 2.135 5.0149999 8425600
2.135 2.165 5.0349998 8425600
2.1849999 2.135 5.0650001 8425600
2.2150002 2.145 5.0950003 8425600
0.64500004 1.225 7.665 9478288
0.64500004 1.245 7.665 9478288
0.64500004 1.2650001 7.665 9474192
0.66500008 1.0550001 7.6550002 10530976
0.68500006 1.0550001 7.645 10530992
0.66500008 1.075 7.6550002 10530976
0.66500008 1.095 7.6550002 10530976
0.68500006 1.075 7.645 10530992
0.68500006 1.095 7.6350002 10530976
0.70500004 1.0550001 7.6350002 11579568
0.72500008 1.0550001 7.6350002 11583664
0.72500008 1.095 7.625 11579568
0.70500004 1.075 7.645 11579568
0.70500004 1.095 7.6350002 11579552
0.72500008 1.075 7.6350002 11579568
0.78500009 1.085 7.585 11579568
0.80500007 1.085 7.5750003 11583664
0.74500006 1.095 7.6150002 11579568
0.76500005 1.085 7.5950003 11583664
0.76500005 1.105 7.5950003 11583664
0.66500008 1.115 7.6550002 10530976
0.66500008 1.1350001 7.665 10530976
0.68500006 1.115 7.645 10530976
0.68500006 1.1350001 7.645 10530976
0.66500008 1.1550001 7.665 10526880
0.66500008 1.1850001 7.665 10526880
0.68500006 1.1550001 7.645 10530976
0.68500006 1.1750001 7.6550002 10530976
0.72500008 1.115 7.625 11579568
0.72500008 1.1350001 7.625 11579568
0.72500008 1.1550001 7.625 11579568
0.72500008 1.1750001 7.625 10530976
0.70500004 1.1550001 7.6350002 10530976
0.70500004 1.1750001 7.645 10530976
0.66500008 1.205 7.6550002 10526880
0.66500008 1.215 7.645 9478288
