# .PCD v0.7 - Point Cloud Data file format
VERSION 0.7
FIELDS x y z rgba
SIZE 4 4 4 4
TYPE F F F U
COUNT 1 1 1 1
WIDTH 1122
HEIGHT 1
VIEWPOINT 0 0 0 1 0 0 0
POINTS 1122
DATA ascii
0.15500006 -0.094999939 0.86500007 10526880
0.16500007 -0.10499994 0.85500008 10530976
0.16500007 -0.094999939 0.85500008 9474192
0.16500007 -0.094999939 0.86500007 9474192
0.12500006 -0.084999941 0.85500008 10530992
0.12500006 -0.074999943 0.86500007 11579568
0.13500006 -0.084999941 0.85500008 9474192
0.13500006 -0.084999941 0.86500007 9478288
0.13500006 -0.074999943 0.86500007 10530976
0.14500006 -0.084999941 0.85500008 11579568
0.14500006 -0.084999941 0.86500007 9478288
0.14500006 -0.074999943 0.86500007 9478304
0.15500006 -0.084999941 0.86500007 9478288
0.15500006 -0.074999943 0.86500007 9478288
0.16500007 -0.084999941 0.86500007 9478288
0.095000058 -0.05499994 0.88500005 11583664
0.10500006 -0.064999938 0.88500005 11579568
0.10500006 -0.05499994 0.88500005 11579568
0.095000058 -0.064999938 0.89500004 10530992
0.095000058 -0.064999938 0.90500003 11579568
0.095000058 -0.05499994 0.89500004 12636352
0.095000058 -0.05499994 0.90500003 12632256
0.10500006 -0.05499994 0.89500004 12636368
0.11500006 -0.074999943 0.87500006 11579568
0.12500006 -0.074999943 0.87500006 11579568
0.11500006 -0.064999938 0.87500006 11583664
0.11500006 -0.064999938 0.88500005 10530976
0.11500006 -0.05499994 0.88500005 10526880
0.12500006 -0.064999938 0.87500006 11579568
0.12500006 -0.064999938 0.88500005 11579568
0.12500006 -0.05499994 0.87500006 9474192
0.12500006 -0.05499994 0.88500005 10526880
0.10500006 -0.044999942 0.88500005 12636352
0.095000058 -0.044999942 0.89500004 13684944
0.095000058 -0.034999941 0.89500004 12632256
0.095000058 -0.034999941 0.90500003 11579568
0.10500006 -0.044999942 0.89500004 12636368
0.10500006 -0.034999941 0.89500004 11583664
0.095000058 -0.024999941 0.89500004 11579568
0.095000058 -0.024999941 0.90500003 12636368
0.095000058 -0.01499994 0.90500003 13684944
0.10500006 -0.024999941 0.89500004 11579568
0.10500006 -0.024999941 0.90500003 14737632
0.10500006 -0.01499994 0.90500003 13684944
0.11500006 -0.044999942 0.88500005 12636352
0.12500006 -0.044999942 0.88500005 12632256
0.12500006 -0.034999941 0.88500005 10530992
0.11500006 -0.044999942 0.89500004 13684944
0.11500006 -0.034999941 0.89500004 11579568
0.12500006 -0.034999941 0.89500004 10530992
0.11500006 -0.024999941 0.89500004 11583664
0.11500006 -0.024999941 0.90500003 14737632
0.11500006 -0.01499994 0.90500003 13684944
0.12500006 -0.024999941 0.89500004 12632256
0.12500006 -0.01499994 0.90500003 13684944
0.095000058 -0.01499994 0.91500008 14741744
0.13500006 -0.074999943 0.87500006 10530976
0.14500006 -0.074999943 0.87500006 10526880
0.13500006 -0.064999938 0.87500006 10530976
0.13500006 -0.064999938 0.88500005 10530976
0.13500006 -0.05499994 0.88500005 9474192
0.14500006 -0.064999938 0.87500006 10526880
0.14500006 -0.064999938 0.88500005 9478304
0.14500006 -0.05499994 0.88500005 9478288
0.15500006 -0.074999943 0.87500006 9474192
0.16500007 -0.084999941 0.87500006 9478288
0.16500007 -0.074999943 0.87500006 8425600
0.15500006 -0.064999938 0.87500006 9474192
0.15500006 -0.064999938 0.88500005 9474192
0.15500006 -0.05499994 0.88500005 9474192
0.16500007 -0.064999938 0.87500006 8425600
0.16500007 -0.064999938 0.88500005 8425616
0.16500007 -0.05499994 0.88500005 9474192
0.13500006 -0.044999942 0.88500005 11579568
0.13500006 -0.034999941 0.88500005 10530992
0.14500006 -0.044999942 0.88500005 10526880
0.14500006 -0.034999941 0.88500005 11579568
0.13500006 -0.024999941 0.88500005 11583664
0.14500006 -0.024999941 0.88500005 12632256
0.13500006 -0.024999941 0.89500004 12636352
0.13500006 -0.01499994 0.89500004 13689040
0.13500006 -0.01499994 0.90500003 13684944
0.14500006 -0.024999941 0.89500004 12636352
0.14500006 -0.01499994 0.89500004 13684944
0.14500006 -0.01499994 0.90500003 13689040
0.15500006 -0.044999942 0.88500005 9474192
0.15500006 -0.034999941 0.88500005 11579552
0.16500007 -0.044999942 0.88500005 8425600
0.15500006 -0.034999941 0.89500004 9474176
0.16500007 -0.044999942 0.89500004 11579568
0.16500007 -0.034999941 0.89500004 9474192
0.15500006 -0.024999941 0.88500005 12632256
0.16500007 -0.024999941 0.88500005 12632240
0.15500006 -0.024999941 0.89500004 12632256
0.15500006 -0.01499994 0.89500004 13684944
0.16500007 -0.024999941 0.89500004 11579552
0.16500007 -0.01499994 0.89500004 12632256
0.20500006 -0.10499994 0.63500005 4210752
0.22500005 -0.11499994 0.64500004 4214864
0.21500006 -0.11499994 0.65500003 3162176
0.21500006 -0.11499994 0.66500008 3158064
0.22500005 -0.11499994 0.65500003 4214864
0.22500005 -0.11499994 0.66500008 4210752
0.21500006 -0.10499994 0.64500004 3162176
0.22500005 -0.10499994 0.63500005 4214864
0.23500006 -0.11499994 0.64500004 4214848
0.23500006 -0.11499994 0.65500003 4214864
0.23500006 -0.11499994 0.66500008 4214848
0.21500006 -0.11499994 0.67500007 2105376
0.21500006 -0.11499994 0.68500006 1056784
0.22500005 -0.11499994 0.67500007 2109488
0.22500005 -0.11499994 0.68500006 2105376
0.21500006 -0.11499994 0.69500005 1052704
0.22500005 -0.11499994 0.69500005 1056784
0.22500005 -0.11499994 0.70500004 1052688
0.21500006 -0.10499994 0.70500004 8425616
0.23500006 -0.11499994 0.67500007 4214848
0.23500006 -0.11499994 0.68500006 3162176
0.24500006 -0.11499994 0.68500006 3162176
0.23500006 -0.11499994 0.69500005 2109488
0.23500006 -0.11499994 0.70500004 1056800
0.24500006 -0.11499994 0.69500005 3162176
0.24500006 -0.11499994 0.70500004 2109488
0.22500005 -0.11499994 0.71500003 1052688
0.22500005 -0.11499994 0.72500008 8425600
0.21500006 -0.10499994 0.72500008 5267552
0.22500005 -0.10499994 0.71500003 8425600
0.22500005 -0.10499994 0.72500008 8425600
0.21500006 -0.10499994 0.73500007 4210752
0.22500005 -0.10499994 0.73500007 5267552
0.22500005 -0.10499994 0.74500006 4210752
0.23500006 -0.11499994 0.71500003 1052688
0.23500006 -0.11499994 0.72500008 2109488
0.24500006 -0.11499994 0.72500008 1052704
0.23500006 -0.11499994 0.73500007 8421504
0.24500006 -0.11499994 0.73500007 5267552
0.24500006 -0.11499994 0.74500006 9474192
0.23500006 -0.10499994 0.73500007 8421504
0.23500006 -0.10499994 0.74500006 6316128
0.24500006 -0.10499994 0.74500006 8421504
0.22500005 -0.10499994 0.75500005 4210752
0.22500005 -0.10499994 0.76500005 3153952
0.21500006 -0.10499994 0.77500004 4210736
0.21500006 -0.10499994 0.78500009 6316128
0.22500005 -0.10499994 0.77500004 4210752
0.22500005 -0.10499994 0.78500009 7368816
0.22500005 -0.094999939 0.78500009 5267536
0.23500006 -0.10499994 0.75500005 4210752
0.23500006 -0.10499994 0.76500005 3158048
0.24500006 -0.10499994 0.75500005 5263424
0.24500006 -0.10499994 0.76500005 3158064
0.23500006 -0.10499994 0.77500004 4210752
0.23500006 -0.094999939 0.77500004 5267536
0.23500006 -0.094999939 0.78500009 4214848
0.24500006 -0.10499994 0.77500004 3158064
0.24500006 -0.094999939 0.77500004 5263440
0.24500006 -0.094999939 0.78500009 2105376
0.23500006 -0.084999941 0.78500009 8421504
0.23500006 -0.074999943 0.78500009 9474192
0.24500006 -0.084999941 0.77500004 5263440
0.24500006 -0.084999941 0.78500009 7372912
0.24500006 -0.074999943 0.78500009 8425600
0.23500006 -0.064999938 0.78500009 9474176
0.24500006 -0.064999938 0.78500009 9470048
0.24500006 -0.05499994 0.78500009 9465936
0.32500005 -0.094999939 0.66500008 5259312
0.32500005 -0.094999939 0.67500007 10518608
0.25500005 -0.11499994 0.73500007 12636368
0.25500005 -0.11499994 0.74500006 12632256
0.26500005 -0.11499994 0.74500006 13684944
0.25500005 -0.11499994 0.75500005 11583664
0.26500005 -0.11499994 0.75500005 12632256
0.26500005 -0.11499994 0.76500005 11579568
0.25500005 -0.10499994 0.75500005 7368800
0.25500005 -0.10499994 0.76500005 5259312
0.26500005 -0.10499994 0.75500005 10526880
0.26500005 -0.10499994 0.76500005 5259312
0.25500005 -0.10499994 0.77500004 4210736
0.25500005 -0.094999939 0.77500004 5263440
0.25500005 -0.094999939 0.78500009 7368816
0.26500005 -0.10499994 0.77500004 4210720
0.26500005 -0.094999939 0.77500004 5263440
0.26500005 -0.094999939 0.78500009 4210752
0.27500007 -0.11499994 0.75500005 12636352
0.27500007 -0.11499994 0.76500005 11583664
0.28500006 -0.11499994 0.75500005 12632256
0.28500006 -0.11499994 0.76500005 11579568
0.27500007 -0.11499994 0.77500004 9474192
0.28500006 -0.11499994 0.77500004 8421504
0.27500007 -0.10499994 0.76500005 6312016
0.27500007 -0.10499994 0.77500004 4210720
0.27500007 -0.10499994 0.78500009 5259312
0.27500007 -0.094999939 0.77500004 6312016
0.27500007 -0.094999939 0.78500009 5267536
0.28500006 -0.10499994 0.77500004 5259312
0.28500006 -0.10499994 0.78500009 5259296
0.28500006 -0.094999939 0.78500009 5263424
0.29500005 -0.11499994 0.75500005 11583664
0.29500005 -0.11499994 0.76500005 11579552
0.30500007 -0.11499994 0.76500005 11583664
0.29500005 -0.11499994 0.77500004 8425600
0.30500007 -0.11499994 0.77500004 9474192
0.30500007 -0.11499994 0.78500009 6316128
0.29500005 -0.10499994 0.77500004 4210736
0.29500005 -0.10499994 0.78500009 4210720
0.29500005 -0.094999939 0.78500009 5259312
0.30500007 -0.10499994 0.78500009 5259312
0.31500006 -0.11499994 0.76500005 13684944
0.31500006 -0.11499994 0.77500004 12632256
0.31500006 -0.11499994 0.78500009 8425600
0.32500005 -0.11499994 0.78500009 11583664
0.30500007 -0.084999941 0.64500004 10518608
0.30500007 -0.084999941 0.65500003 10518608
0.31500006 -0.084999941 0.66500008 10518592
0.25500005 -0.084999941 0.77500004 4214848
0.25500005 -0.084999941 0.78500009 6320224
0.25500005 -0.074999943 0.78500009 8425600
0.26500005 -0.084999941 0.78500009 6316128
0.26500005 -0.074999943 0.78500009 10526864
0.25500005 -0.064999938 0.78500009 8417360
0.25500005 -0.05499994 0.78500009 8413248
0.26500005 -0.064999938 0.78500009 7364672
0.26500005 -0.05499994 0.78500009 8413248
0.27500007 -0.084999941 0.78500009 5263440
0.27500007 -0.074999943 0.78500009 10526864
0.28500006 -0.084999941 0.78500009 2109472
0.27500007 -0.064999938 0.78500009 7360560
0.18500006 -0.10499994 0.84500009 4214848
0.17500006 -0.10499994 0.85500008 9478288
0.17500006 -0.10499994 0.86500007 9478304
0.17500006 -0.094999939 0.85500008 10530976
0.17500006 -0.094999939 0.86500007 9474192
0.18500006 -0.10499994 0.85500008 8421504
0.18500006 -0.10499994 0.86500007 9474192
0.18500006 -0.094999939 0.86500007 9474192
0.20500006 -0.11499994 0.83500004 8421504
0.20500006 -0.11499994 0.84500009 6316128
0.19500005 -0.10499994 0.84500009 4210752
0.20500006 -0.10499994 0.84500009 5267536
0.19500005 -0.10499994 0.85500008 5267536
0.19500005 -0.10499994 0.86500007 8425616
0.19500005 -0.094999939 0.86500007 8425616
0.20500006 -0.10499994 0.85500008 5263440
0.20500006 -0.10499994 0.86500007 8425600
0.20500006 -0.094999939 0.86500007 8421504
0.21500006 -0.10499994 0.79500008 7372912
0.21500006 -0.10499994 0.80500007 7368816
0.21500006 -0.094999939 0.79500008 3158064
0.21500006 -0.094999939 0.80500007 4214848
0.22500005 -0.10499994 0.79500008 8421488
0.22500005 -0.094999939 0.79500008 5263440
0.22500005 -0.094999939 0.80500007 8421504
0.21500006 -0.10499994 0.81500006 5263440
0.21500006 -0.10499994 0.82500005 3162160
0.21500006 -0.094999939 0.81500006 7372912
0.21500006 -0.094999939 0.82500005 8421504
0.22500005 -0.10499994 0.82500005 6316128
0.22500005 -0.094999939 0.81500006 9478288
0.23500006 -0.094999939 0.79500008 6316128
0.21500006 -0.11499994 0.83500004 6320224
0.21500006 -0.11499994 0.84500009 7368816
0.22500005 -0.11499994 0.84500009 7368816
0.21500006 -0.11499994 0.85500008 7368816
0.22500005 -0.11499994 0.85500008 8421504
0.21500006 -0.094999939 0.83500004 8425616
0.21500006 -0.094999939 0.84500009 9474192
0.22500005 -0.10499994 0.83500004 2105376
0.22500005 -0.10499994 0.84500009 5267536
0.22500005 -0.094999939 0.84500009 7368816
0.21500006 -0.10499994 0.85500008 4210752
0.21500006 -0.10499994 0.86500007 8421504
0.21500006 -0.094999939 0.85500008 9474192
0.21500006 -0.094999939 0.86500007 9478288
0.22500005 -0.10499994 0.85500008 4214848
0.22500005 -0.10499994 0.86500007 8421504
0.22500005 -0.094999939 0.85500008 9474192
0.22500005 -0.094999939 0.86500007 9474192
0.17500006 -0.094999939 0.87500006 8425600
0.18500006 -0.094999939 0.87500006 8425616
0.19500005 -0.094999939 0.87500006 8425600
0.20500006 -0.094999939 0.87500006 8421504
0.21500006 -0.094999939 0.87500006 9474192
0.22500005 -0.094999939 0.87500006 9474192
0.17500006 -0.084999941 0.86500007 8421504
0.22500005 -0.084999941 0.79500008 8425600
0.22500005 -0.084999941 0.80500007 9474192
0.22500005 -0.074999943 0.79500008 9474192
0.22500005 -0.074999943 0.80500007 9474192
0.21500006 -0.084999941 0.81500006 9478304
0.21500006 -0.084999941 0.82500005 9474192
0.21500006 -0.074999943 0.82500005 9474192
0.22500005 -0.084999941 0.81500006 9474192
0.22500005 -0.084999941 0.82500005 8425600
0.22500005 -0.074999943 0.81500006 9474192
0.22500005 -0.064999938 0.80500007 9474192
0.22500005 -0.05499994 0.80500007 9465952
0.21500006 -0.064999938 0.82500005 9478304
0.21500006 -0.05499994 0.82500005 10522752
0.22500005 -0.064999938 0.81500006 9478288
0.22500005 -0.064999938 0.82500005 9478288
0.22500005 -0.05499994 0.81500006 10518640
0.22500005 -0.05499994 0.82500005 10518640
0.23500006 -0.084999941 0.79500008 8425600
0.23500006 -0.074999943 0.79500008 9474192
0.23500006 -0.064999938 0.79500008 9474176
0.23500006 -0.064999938 0.80500007 9470064
0.23500006 -0.05499994 0.79500008 10514528
0.23500006 -0.05499994 0.80500007 10514528
0.24500006 -0.05499994 0.79500008 9465936
0.21500006 -0.084999941 0.83500004 9474192
0.21500006 -0.084999941 0.84500009 9478288
0.21500006 -0.074999943 0.83500004 9478288
0.21500006 -0.074999943 0.84500009 9474192
0.21500006 -0.084999941 0.85500008 9478288
0.21500006 -0.074999943 0.86500007 9474192
0.21500006 -0.064999938 0.83500004 9478288
0.21500006 -0.064999938 0.84500009 9478288
0.21500006 -0.05499994 0.83500004 10518656
0.21500006 -0.05499994 0.84500009 10522752
0.21500006 -0.064999938 0.85500008 10526880
0.21500006 -0.064999938 0.86500007 9474192
0.21500006 -0.05499994 0.85500008 10522752
0.21500006 -0.05499994 0.86500007 10526880
0.22500005 -0.044999942 0.80500007 10514528
0.21500006 -0.044999942 0.82500005 10518640
0.21500006 -0.034999941 0.82500005 10518640
0.22500005 -0.044999942 0.81500006 10518640
0.22500005 -0.044999942 0.82500005 10518640
0.22500005 -0.034999941 0.81500006 10518624
0.22500005 -0.034999941 0.82500005 10518640
0.21500006 -0.024999941 0.82500005 10518640
0.21500006 -0.01499994 0.82500005 10518640
0.22500005 -0.024999941 0.81500006 10518640
0.22500005 -0.024999941 0.82500005 10518640
0.22500005 -0.01499994 0.81500006 10518640
0.22500005 -0.01499994 0.82500005 10518640
0.23500006 -0.044999942 0.79500008 10518624
0.23500006 -0.044999942 0.80500007 10518624
0.23500006 -0.034999941 0.79500008 10518624
0.23500006 -0.034999941 0.80500007 10514528
0.24500006 -0.044999942 0.79500008 9465936
0.24500006 -0.034999941 0.79500008 9465936
0.23500006 -0.034999941 0.81500006 10514528
0.23500006 -0.024999941 0.80500007 10514528
0.23500006 -0.01499994 0.80500007 10518624
0.24500006 -0.024999941 0.79500008 9465936
0.24500006 -0.024999941 0.80500007 9465936
0.24500006 -0.01499994 0.80500007 9465936
0.23500006 -0.024999941 0.81500006 10514528
0.23500006 -0.01499994 0.81500006 10518624
0.24500006 -0.024999941 0.81500006 9465952
0.24500006 -0.01499994 0.81500006 10514528
0.21500006 -0.044999942 0.83500004 10518640
0.21500006 -0.044999942 0.84500009 10518640
0.21500006 -0.034999941 0.83500004 10518640
0.21500006 -0.034999941 0.84500009 10518640
0.21500006 -0.044999942 0.85500008 10518640
0.21500006 -0.034999941 0.85500008 10518640
0.21500006 -0.034999941 0.86500007 10518640
0.21500006 -0.024999941 0.83500004 10518640
0.21500006 -0.024999941 0.84500009 10518640
0.21500006 -0.01499994 0.83500004 10518640
0.21500006 -0.01499994 0.84500009 10518640
0.21500006 -0.024999941 0.85500008 10518640
0.21500006 -0.024999941 0.86500007 10518640
0.21500006 -0.01499994 0.85500008 10518640
0.21500006 -0.01499994 0.86500007 10518640
0.17500006 -0.084999941 0.87500006 8425600
0.17500006 -0.074999943 0.87500006 8421504
0.17500006 -0.074999943 0.88500005 8421504
0.18500006 -0.084999941 0.87500006 7372928
0.18500006 -0.074999943 0.87500006 8421504
0.17500006 -0.064999938 0.87500006 8421504
0.17500006 -0.064999938 0.88500005 8421504
0.17500006 -0.05499994 0.87500006 8421504
0.17500006 -0.05499994 0.88500005 8421504
0.18500006 -0.064999938 0.87500006 7372912
0.18500006 -0.064999938 0.88500005 8421504
0.18500006 -0.05499994 0.88500005 7372928
0.18500006 -0.05499994 0.89500004 8421504
0.19500005 -0.084999941 0.87500006 8421504
0.19500005 -0.084999941 0.88500005 7372928
0.19500005 -0.074999943 0.87500006 8421504
0.19500005 -0.074999943 0.88500005 8421504
0.20500006 -0.084999941 0.87500006 8421504
0.20500006 -0.084999941 0.88500005 8421504
0.20500006 -0.074999943 0.87500006 9478304
0.20500006 -0.074999943 0.88500005 8425616
0.19500005 -0.064999938 0.87500006 7372928
0.19500005 -0.064999938 0.88500005 7372928
0.19500005 -0.05499994 0.88500005 7372912
0.20500006 -0.064999938 0.88500005 8425616
0.20500006 -0.05499994 0.88500005 9474192
0.19500005 -0.05499994 0.89500004 8425600
0.20500006 -0.05499994 0.89500004 10526880
0.17500006 -0.044999942 0.88500005 8421504
0.18500006 -0.044999942 0.88500005 9474192
0.17500006 -0.044999942 0.89500004 10526880
0.17500006 -0.034999941 0.89500004 9474192
0.18500006 -0.044999942 0.89500004 11579552
0.18500006 -0.034999941 0.89500004 10526864
0.17500006 -0.024999941 0.89500004 9474192
0.17500006 -0.01499994 0.89500004 11583664
0.18500006 -0.024999941 0.89500004 8421504
0.18500006 -0.01499994 0.89500004 10526880
0.19500005 -0.044999942 0.89500004 10530976
0.19500005 -0.044999942 0.90500003 10530976
0.19500005 -0.034999941 0.89500004 10522768
0.19500005 -0.034999941 0.90500003 10526864
0.20500006 -0.044999942 0.89500004 11579552
0.20500006 -0.044999942 0.90500003 11579552
0.20500006 -0.034999941 0.89500004 10522768
0.20500006 -0.034999941 0.90500003 9474192
0.19500005 -0.024999941 0.89500004 8421488
0.19500005 -0.024999941 0.90500003 8421488
0.19500005 -0.01499994 0.89500004 9474176
0.19500005 -0.01499994 0.90500003 8421488
0.20500006 -0.024999941 0.90500003 8417392
0.20500006 -0.01499994 0.89500004 8417392
0.20500006 -0.01499994 0.90500003 8417376
0.21500006 -0.084999941 0.87500006 9474192
0.21500006 -0.084999941 0.88500005 9478288
0.21500006 -0.074999943 0.87500006 10526880
0.21500006 -0.074999943 0.88500005 9474192
0.22500005 -0.084999941 0.87500006 9474192
0.22500005 -0.084999941 0.88500005 9474192
0.22500005 -0.074999943 0.87500006 9478288
0.22500005 -0.074999943 0.88500005 9474192
0.21500006 -0.064999938 0.87500006 10526880
0.21500006 -0.064999938 0.88500005 9478304
0.21500006 -0.05499994 0.87500006 10522768
0.21500006 -0.05499994 0.88500005 10526880
0.22500005 -0.064999938 0.87500006 9478288
0.22500005 -0.05499994 0.88500005 11575456
0.21500006 -0.05499994 0.89500004 11579568
0.21500006 -0.044999942 0.87500006 10522752
0.21500006 -0.044999942 0.88500005 9474176
0.21500006 -0.034999941 0.87500006 9470064
0.21500006 -0.034999941 0.88500005 9470064
0.22500005 -0.044999942 0.88500005 10526864
0.21500006 -0.044999942 0.89500004 10526880
0.21500006 -0.044999942 0.90500003 10526880
0.21500006 -0.034999941 0.89500004 8417392
0.21500006 -0.034999941 0.90500003 9474176
0.22500005 -0.044999942 0.89500004 10522768
0.22500005 -0.034999941 0.89500004 9470064
0.22500005 -0.034999941 0.90500003 9474176
0.21500006 -0.024999941 0.87500006 9470064
0.21500006 -0.024999941 0.88500005 7364688
0.21500006 -0.01499994 0.87500006 9470064
0.21500006 -0.01499994 0.88500005 7368800
0.21500006 -0.024999941 0.89500004 7364704
0.21500006 -0.024999941 0.90500003 7368800
0.21500006 -0.01499994 0.89500004 7364688
0.21500006 -0.01499994 0.90500003 7364688
0.28500006 -0.094999939 0.79500008 6316128
0.29500005 -0.10499994 0.79500008 4210720
0.29500005 -0.094999939 0.79500008 5263424
0.30500007 -0.10499994 0.79500008 4210720
0.30500007 -0.10499994 0.80500007 4210720
0.30500007 -0.094999939 0.79500008 4210736
0.30500007 -0.094999939 0.80500007 4210736
0.31500006 -0.11499994 0.79500008 6316112
0.32500005 -0.11499994 0.79500008 9470064
0.31500006 -0.10499994 0.79500008 8413248
0.31500006 -0.10499994 0.80500007 4206608
0.31500006 -0.094999939 0.80500007 4206624
0.32500005 -0.10499994 0.79500008 9465920
0.32500005 -0.10499994 0.80500007 6311968
0.32500005 -0.094999939 0.80500007 4206608
0.32500005 -0.10499994 0.81500006 4206624
0.32500005 -0.094999939 0.81500006 4206608
0.25500005 -0.05499994 0.79500008 9461840
0.26500005 -0.064999938 0.79500008 8413248
0.26500005 -0.05499994 0.79500008 8413248
0.27500007 -0.084999941 0.79500008 8421504
0.27500007 -0.074999943 0.79500008 9470064
0.28500006 -0.084999941 0.79500008 7368816
0.28500006 -0.074999943 0.79500008 8417360
0.27500007 -0.064999938 0.79500008 7360560
0.27500007 -0.05499994 0.79500008 7360560
0.28500006 -0.064999938 0.79500008 7360560
0.28500006 -0.05499994 0.79500008 7360560
0.28500006 -0.05499994 0.80500007 8409136
0.25500005 -0.044999942 0.79500008 9465936
0.25500005 -0.034999941 0.79500008 9461840
0.26500005 -0.044999942 0.79500008 8413248
0.26500005 -0.044999942 0.80500007 8413248
0.26500005 -0.034999941 0.79500008 8413248
0.26500005 -0.034999941 0.80500007 8413248
0.25500005 -0.024999941 0.79500008 9465936
0.25500005 -0.024999941 0.80500007 9465936
0.25500005 -0.01499994 0.80500007 9465936
0.26500005 -0.024999941 0.80500007 8413248
0.26500005 -0.01499994 0.80500007 8413248
0.27500007 -0.044999942 0.79500008 8413248
0.27500007 -0.044999942 0.80500007 8413248
0.27500007 -0.034999941 0.80500007 8413248
0.28500006 -0.044999942 0.79500008 8413232
0.28500006 -0.044999942 0.80500007 8413248
0.28500006 -0.034999941 0.80500007 8413248
0.27500007 -0.024999941 0.80500007 8413248
0.27500007 -0.01499994 0.80500007 8413248
0.28500006 -0.024999941 0.80500007 8413248
0.27500007 -0.024999941 0.81500006 8413248
0.27500007 -0.01499994 0.81500006 8413248
0.28500006 -0.024999941 0.81500006 8413248
0.28500006 -0.01499994 0.81500006 7360560
0.28500006 -0.01499994 0.82500005 7360560
0.29500005 -0.084999941 0.79500008 4210752
0.29500005 -0.074999943 0.79500008 7360560
0.30500007 -0.084999941 0.79500008 5259312
0.30500007 -0.084999941 0.80500007 5255200
0.30500007 -0.074999943 0.79500008 6307888
0.30500007 -0.074999943 0.80500007 6307872
0.29500005 -0.064999938 0.79500008 7360560
0.29500005 -0.05499994 0.79500008 8409152
0.29500005 -0.05499994 0.80500007 8413248
0.30500007 -0.064999938 0.80500007 7360560
0.30500007 -0.05499994 0.80500007 8413248
0.30500007 -0.05499994 0.81500006 8413248
0.31500006 -0.084999941 0.80500007 5255200
0.31500006 -0.074999943 0.80500007 6307872
0.32500005 -0.084999941 0.80500007 5255200
0.32500005 -0.074999943 0.80500007 6307872
0.32500005 -0.084999941 0.81500006 5255200
0.32500005 -0.074999943 0.81500006 6307888
0.31500006 -0.064999938 0.80500007 7360560
0.31500006 -0.05499994 0.80500007 8413248
0.31500006 -0.064999938 0.81500006 8413248
0.31500006 -0.05499994 0.81500006 9465936
0.32500005 -0.064999938 0.81500006 8413248
0.32500005 -0.05499994 0.81500006 9465936
0.32500005 -0.05499994 0.82500005 9465936
0.29500005 -0.044999942 0.80500007 8413248
0.29500005 -0.034999941 0.80500007 7364672
0.30500007 -0.044999942 0.80500007 9465936
0.29500005 -0.044999942 0.81500006 8413248
0.29500005 -0.034999941 0.81500006 8413248
0.30500007 -0.044999942 0.81500006 9470048
0.29500005 -0.024999941 0.81500006 7364672
0.29500005 -0.024999941 0.82500005 7364672
0.29500005 -0.01499994 0.81500006 7360576
0.29500005 -0.01499994 0.82500005 6312000
0.31500006 -0.044999942 0.81500006 9470048
0.31500006 -0.044999942 0.82500005 7364672
0.32500005 -0.044999942 0.81500006 7364688
0.32500005 -0.044999942 0.82500005 7364672
0.02500006 -0.05499994 0.95500004 13689056
0.015000059 -0.05499994 0.99500006 12632272
0.015000059 -0.034999941 0.96500003 12632256
0.02500006 -0.044999942 0.95500004 14741744
0.02500006 -0.044999942 0.96500003 14737648
0.02500006 -0.034999941 0.96500003 13684960
0.015000059 -0.034999941 0.97500008 11583680
0.02500006 -0.044999942 0.97500008 14737648
0.02500006 -0.044999942 0.98500007 12636368
0.02500006 -0.034999941 0.97500008 12632256
0.02500006 -0.034999941 0.98500007 11583680
0.02500006 -0.024999941 0.96500003 13684944
0.02500006 -0.01499994 0.95500004 14741744
0.02500006 -0.01499994 0.96500003 14741744
0.02500006 -0.01499994 0.97500008 14741744
0.03500006 -0.044999942 0.95500004 14737648
0.03500006 -0.034999941 0.95500004 14737632
0.03500006 -0.034999941 0.96500003 13689056
0.03500006 -0.024999941 0.95500004 12632272
0.03500006 -0.024999941 0.96500003 11583680
0.03500006 -0.01499994 0.95500004 13684944
0.03500006 -0.01499994 0.96500003 14741744
0.03500006 -0.01499994 0.97500008 14737632
0.015000059 -0.044999942 0.99500006 11583680
0.33500007 -0.094999939 0.68500006 10518608
0.33500007 -0.094999939 0.69500005 10518608
0.33500007 -0.11499994 0.78500009 13684928
0.33500007 -0.11499994 0.79500008 10522752
0.33500007 -0.11499994 0.80500007 10518608
0.34500006 -0.11499994 0.79500008 10518640
0.34500006 -0.11499994 0.80500007 10518608
0.34500006 -0.11499994 0.81500006 11575440
0.33500007 -0.10499994 0.79500008 9465920
0.33500007 -0.10499994 0.80500007 9465920
0.34500006 -0.10499994 0.80500007 9465920
0.33500007 -0.10499994 0.81500006 4206608
0.33500007 -0.094999939 0.81500006 4202512
0.33500007 -0.094999939 0.82500005 4202512
0.34500006 -0.10499994 0.81500006 8413232
0.34500006 -0.10499994 0.82500005 4206624
0.34500006 -0.094999939 0.82500005 4202512
0.35500005 -0.11499994 0.79500008 9470048
0.35500005 -0.11499994 0.80500007 10518608
0.35500005 -0.11499994 0.81500006 10518608
0.36500007 -0.11499994 0.81500006 10518608
0.36500007 -0.11499994 0.82500005 10518608
0.35500005 -0.10499994 0.81500006 9465920
0.35500005 -0.10499994 0.82500005 6311968
0.35500005 -0.094999939 0.82500005 4202512
0.36500007 -0.10499994 0.82500005 9465920
0.35500005 -0.10499994 0.83500004 5259296
0.35500005 -0.094999939 0.83500004 4202512
0.36500007 -0.10499994 0.83500004 6307872
0.36500007 -0.094999939 0.83500004 4206608
0.36500007 -0.094999939 0.84500009 4206608
0.37500006 -0.11499994 0.82500005 10518608
0.39500007 -0.10499994 0.82500005 9465920
0.37500006 -0.11499994 0.83500004 9465920
0.38500005 -0.11499994 0.83500004 10518608
0.38500005 -0.11499994 0.84500009 10518608
0.38500005 -0.11499994 0.85500008 9465920
0.37500006 -0.10499994 0.83500004 9465920
0.37500006 -0.10499994 0.84500009 6311968
0.37500006 -0.094999939 0.84500009 4206608
0.38500005 -0.10499994 0.84500009 8413232
0.37500006 -0.10499994 0.85500008 6311984
0.37500006 -0.094999939 0.85500008 4206608
0.38500005 -0.10499994 0.85500008 5259296
0.38500005 -0.094999939 0.85500008 4206608
0.38500005 -0.094999939 0.86500007 5255184
0.39500007 -0.11499994 0.84500009 10518608
0.39500007 -0.11499994 0.85500008 10518608
0.39500007 -0.11499994 0.86500007 10518608
0.40500006 -0.11499994 0.85500008 10518608
0.40500006 -0.11499994 0.86500007 8417344
0.39500007 -0.10499994 0.83500004 9465920
0.39500007 -0.10499994 0.85500008 8413232
0.39500007 -0.10499994 0.86500007 6307872
0.39500007 -0.094999939 0.86500007 5255184
0.40500006 -0.10499994 0.86500007 8413248
0.40500006 -0.11499994 0.87500006 10518592
0.39500007 -0.10499994 0.87500006 7360560
0.39500007 -0.094999939 0.87500006 5255184
0.40500006 -0.10499994 0.87500006 6307872
0.40500006 -0.094999939 0.87500006 5255184
0.40500006 -0.094999939 0.88500005 5255184
0.33500007 -0.084999941 0.81500006 5255200
0.33500007 -0.084999941 0.82500005 5255200
0.33500007 -0.074999943 0.81500006 6307872
0.34500006 -0.084999941 0.81500006 5259296
0.34500006 -0.084999941 0.82500005 5255200
0.34500006 -0.074999943 0.81500006 7360560
0.34500006 -0.074999943 0.82500005 6311984
0.33500007 -0.064999938 0.81500006 8413248
0.33500007 -0.064999938 0.82500005 8413248
0.33500007 -0.05499994 0.82500005 9470032
0.34500006 -0.064999938 0.82500005 8413248
0.34500006 -0.05499994 0.82500005 10518608
0.35500005 -0.084999941 0.82500005 5255200
0.35500005 -0.074999943 0.82500005 6311984
0.33500007 -0.05499994 0.83500004 9470032
0.34500006 -0.064999938 0.83500004 9465936
0.34500006 -0.05499994 0.83500004 10518624
0.34500006 -0.05499994 0.84500009 9465936
0.35500005 -0.084999941 0.83500004 5255200
0.35500005 -0.074999943 0.83500004 7360560
0.36500007 -0.084999941 0.83500004 5255200
0.36500007 -0.084999941 0.84500009 6307872
0.36500007 -0.074999943 0.83500004 7360560
0.36500007 -0.074999943 0.84500009 7360560
0.35500005 -0.064999938 0.83500004 8413248
0.35500005 -0.064999938 0.84500009 9465936
0.35500005 -0.05499994 0.83500004 10518624
0.35500005 -0.05499994 0.84500009 9470032
0.36500007 -0.064999938 0.84500009 8417344
0.36500007 -0.064999938 0.85500008 9465936
0.36500007 -0.05499994 0.85500008 8413248
0.36500007 -0.05499994 0.86500007 7364672
0.33500007 -0.044999942 0.82500005 5259312
0.34500006 -0.044999942 0.82500005 5259312
0.34500006 -0.044999942 0.83500004 4206624
0.37500006 -0.084999941 0.84500009 5259296
0.37500006 -0.074999943 0.84500009 7360560
0.37500006 -0.084999941 0.85500008 6307872
0.37500006 -0.074999943 0.85500008 7360560
0.38500005 -0.084999941 0.85500008 6307872
0.38500005 -0.084999941 0.86500007 6307872
0.38500005 -0.074999943 0.85500008 7360560
0.38500005 -0.074999943 0.86500007 8413248
0.37500006 -0.064999938 0.85500008 9465936
0.37500006 -0.064999938 0.86500007 9465936
0.37500006 -0.05499994 0.86500007 7364672
0.38500005 -0.064999938 0.86500007 8417344
0.39500007 -0.084999941 0.86500007 6307872
0.39500007 -0.074999943 0.86500007 7360560
0.38500005 -0.074999943 0.87500006 7364656
0.37500006 -0.064999938 0.87500006 9470048
0.37500006 -0.05499994 0.87500006 7364672
0.38500005 -0.064999938 0.87500006 9465936
0.38500005 -0.064999938 0.88500005 9465936
0.38500005 -0.05499994 0.87500006 7364672
0.38500005 -0.05499994 0.88500005 6316096
0.39500007 -0.084999941 0.87500006 6307872
0.39500007 -0.074999943 0.87500006 8413248
0.39500007 -0.074999943 0.88500005 8413248
0.40500006 -0.084999941 0.87500006 6307872
0.40500006 -0.084999941 0.88500005 6307872
0.40500006 -0.074999943 0.87500006 7360560
0.40500006 -0.074999943 0.88500005 8413248
0.40500006 -0.074999943 0.89500004 8413248
0.39500007 -0.064999938 0.87500006 8413248
0.39500007 -0.064999938 0.88500005 8417360
0.39500007 -0.05499994 0.88500005 7364672
0.40500006 -0.064999938 0.88500005 8413248
0.39500007 -0.064999938 0.89500004 9465936
0.39500007 -0.05499994 0.89500004 6312000
0.39500007 -0.05499994 0.90500003 6312000
0.40500006 -0.064999938 0.89500004 9465936
0.40500006 -0.064999938 0.90500003 9465936
0.40500006 -0.05499994 0.90500003 5259312
0.40500006 -0.05499994 0.91500008 4210736
0.41500005 -0.10499994 0.85500008 9465920
0.41500005 -0.11499994 0.87500006 7360560
0.42500007 -0.11499994 0.88500005 9465920
0.41500005 -0.10499994 0.87500006 8413232
0.41500005 -0.10499994 0.88500005 6307872
0.41500005 -0.094999939 0.88500005 5255200
0.42500007 -0.10499994 0.88500005 8413232
0.41500005 -0.10499994 0.89500004 6307872
0.41500005 -0.094999939 0.89500004 5255184
0.42500007 -0.10499994 0.89500004 6307872
0.42500007 -0.10499994 0.90500003 6307872
0.42500007 -0.094999939 0.89500004 5255184
0.42500007 -0.094999939 0.90500003 5255200
0.43500006 -0.11499994 0.88500005 6311984
0.43500006 -0.12499994 0.89500004 10518608
0.43500006 -0.11499994 0.89500004 9465920
0.43500006 -0.11499994 0.90500003 9465920
0.44500005 -0.12499994 0.90500003 7364656
0.44500005 -0.11499994 0.89500004 10518592
0.44500005 -0.11499994 0.90500003 8413232
0.43500006 -0.10499994 0.89500004 8413232
0.43500006 -0.10499994 0.90500003 6307872
0.43500006 -0.094999939 0.90500003 5255184
0.44500005 -0.11499994 0.91500008 9465920
0.43500006 -0.10499994 0.91500008 5259296
0.43500006 -0.094999939 0.91500008 5255200
0.44500005 -0.10499994 0.91500008 6307872
0.44500005 -0.10499994 0.92500007 5259296
0.44500005 -0.094999939 0.91500008 5255200
0.45500007 -0.11499994 0.90500003 9465920
0.45500007 -0.12499994 0.91500008 7360560
0.45500007 -0.11499994 0.91500008 9465920
0.45500007 -0.11499994 0.92500007 9465920
0.46500006 -0.11499994 0.91500008 12624000
0.46500006 -0.11499994 0.92500007 9465936
0.46500006 -0.11499994 0.93500006 8413232
0.45500007 -0.10499994 0.91500008 8413232
0.45500007 -0.10499994 0.92500007 6307872
0.45500007 -0.094999939 0.92500007 5255184
0.46500006 -0.10499994 0.92500007 8413232
0.45500007 -0.10499994 0.93500006 5255184
0.45500007 -0.094999939 0.93500006 5255200
0.46500006 -0.10499994 0.93500006 5255184
0.46500006 -0.094999939 0.93500006 6303776
0.47500005 -0.11499994 0.93500006 9465920
0.47500005 -0.11499994 0.94500005 9465920
0.48500007 -0.12499994 0.93500006 4206624
0.48500007 -0.11499994 0.93500006 8413232
0.48500007 -0.11499994 0.94500005 8413232
0.47500005 -0.10499994 0.94500005 6307872
0.47500005 -0.094999939 0.94500005 6307872
0.48500007 -0.10499994 0.94500005 7360544
0.41500005 -0.084999941 0.88500005 6307872
0.41500005 -0.074999943 0.88500005 8413248
0.41500005 -0.084999941 0.89500004 6307888
0.41500005 -0.074999943 0.89500004 8413248
0.42500007 -0.084999941 0.89500004 6307872
0.42500007 -0.084999941 0.90500003 6307872
0.42500007 -0.074999943 0.89500004 7360560
0.42500007 -0.074999943 0.90500003 8413248
0.41500005 -0.064999938 0.89500004 8413248
0.41500005 -0.064999938 0.90500003 9465936
0.42500007 -0.064999938 0.90500003 9465920
0.43500006 -0.084999941 0.90500003 6307872
0.42500007 -0.074999943 0.91500008 8413248
0.41500005 -0.064999938 0.91500008 9465936
0.41500005 -0.05499994 0.91500008 7364672
0.41500005 -0.05499994 0.92500007 6312000
0.42500007 -0.064999938 0.91500008 9465936
0.42500007 -0.064999938 0.92500007 9470032
0.42500007 -0.05499994 0.92500007 8417360
0.42500007 -0.05499994 0.93500006 7364672
0.43500006 -0.084999941 0.91500008 6307872
0.43500006 -0.074999943 0.91500008 7364656
0.44500005 -0.084999941 0.91500008 6307872
0.44500005 -0.084999941 0.92500007 6307872
0.44500005 -0.074999943 0.91500008 6307872
0.44500005 -0.074999943 0.92500007 7360560
0.43500006 -0.064999938 0.91500008 8413248
0.43500006 -0.064999938 0.92500007 9465936
0.44500005 -0.064999938 0.92500007 8413248
0.43500006 -0.064999938 0.93500006 9465936
0.43500006 -0.05499994 0.94500005 6316096
0.44500005 -0.064999938 0.93500006 8413248
0.44500005 -0.064999938 0.94500005 8417360
0.44500005 -0.05499994 0.94500005 9465936
0.45500007 -0.084999941 0.92500007 6307872
0.45500007 -0.074999943 0.92500007 7360560
0.45500007 -0.084999941 0.93500006 6307872
0.45500007 -0.074999943 0.93500006 7360560
0.46500006 -0.084999941 0.93500006 6307872
0.46500006 -0.084999941 0.94500005 6307872
0.46500006 -0.074999943 0.93500006 7360560
0.46500006 -0.074999943 0.94500005 8413248
0.45500007 -0.064999938 0.93500006 8413248
0.45500007 -0.064999938 0.94500005 9465936
0.46500006 -0.064999938 0.94500005 9465936
0.47500005 -0.084999941 0.94500005 6307872
0.47500005 -0.074999943 0.94500005 7360560
0.52500004 -0.13499995 0.94500005 4206624
0.49500006 -0.12499994 0.94500005 5259312
0.50500005 -0.12499994 0.94500005 6307872
0.51500005 -0.12499994 0.94500005 7364656
0.53500009 -0.13499995 0.94500005 7364672
0.64500004 -0.094999939 0.92500007 5267520
0.48500007 -0.10499994 0.95500004 5259296
0.48500007 -0.094999939 0.95500004 5255200
0.43500006 -0.05499994 0.95500004 8417360
0.44500005 -0.05499994 0.95500004 8417360
0.44500005 -0.05499994 0.96500003 8417360
0.44500005 -0.05499994 0.97500008 7364688
0.45500007 -0.064999938 0.95500004 9465936
0.45500007 -0.05499994 0.95500004 9470048
0.45500007 -0.05499994 0.96500003 9470048
0.46500006 -0.064999938 0.95500004 9465936
0.46500006 -0.05499994 0.96500003 9470048
0.45500007 -0.05499994 0.98500007 7364672
0.46500006 -0.05499994 0.97500008 9470064
0.46500006 -0.05499994 0.98500007 8417360
0.47500005 -0.084999941 0.95500004 6307872
0.47500005 -0.074999943 0.95500004 7360560
0.48500007 -0.084999941 0.95500004 5255200
0.48500007 -0.074999943 0.95500004 6307888
0.48500007 -0.074999943 0.96500003 6311984
0.47500005 -0.064999938 0.95500004 8413248
0.47500005 -0.064999938 0.96500003 8413248
0.47500005 -0.05499994 0.96500003 6312000
0.48500007 -0.064999938 0.95500004 6316096
0.48500007 -0.064999938 0.96500003 6316112
0.48500007 -0.05499994 0.96500003 10526864
0.47500005 -0.05499994 0.97500008 8421488
0.47500005 -0.05499994 0.98500007 12632240
0.48500007 -0.05499994 0.97500008 10526864
0.48500007 -0.05499994 0.98500007 11575440
0.45500007 -0.05499994 0.99500006 7364688
0.46500006 -0.05499994 1.0050001 8417360
0.47500005 -0.05499994 0.99500006 10526848
0.47500005 -0.05499994 1.0050001 10522736
0.48500007 -0.044999942 0.98500007 12624000
0.46500006 -0.044999942 1.0050001 8417376
0.47500005 -0.044999942 0.99500006 11575424
0.47500005 -0.044999942 1.0050001 11571312
0.48500007 -0.044999942 0.99500006 12624000
0.48500007 -0.044999942 1.0050001 12624000
0.48500007 -0.034999941 1.0050001 12624000
0.47500005 -0.044999942 1.0150001 10518624
0.47500005 -0.044999942 1.0250001 9470048
0.47500005 -0.034999941 1.0150001 11571312
0.47500005 -0.034999941 1.0250001 9465936
0.48500007 -0.034999941 1.0150001 12624000
0.48500007 -0.034999941 1.0250001 11571328
0.47500005 -0.024999941 1.0250001 10518624
0.48500007 -0.024999941 1.0250001 12619904
0.47500005 -0.034999941 1.0350001 7364672
0.47500005 -0.024999941 1.0350001 10518624
0.47500005 -0.024999941 1.0450001 7364688
0.48500007 -0.024999941 1.0350001 12624000
0.48500007 -0.024999941 1.0450001 11571328
0.48500007 -0.01499994 1.0450001 12624000
0.48500007 -0.01499994 1.0550001 12628128
0.49500006 -0.12499994 0.95500004 6311984
0.49500006 -0.11499994 0.95500004 8413232
0.50500005 -0.12499994 0.95500004 8413232
0.50500005 -0.11499994 0.95500004 9465904
0.50500005 -0.11499994 0.96500003 8413232
0.49500006 -0.10499994 0.95500004 4206608
0.49500006 -0.10499994 0.96500003 4202512
0.49500006 -0.094999939 0.95500004 2101248
0.49500006 -0.094999939 0.96500003 3153920
0.50500005 -0.10499994 0.96500003 5259296
0.50500005 -0.094999939 0.96500003 4206608
0.50500005 -0.10499994 0.97500008 4206608
0.50500005 -0.094999939 0.97500008 4206608
0.51500005 -0.12499994 0.95500004 8413232
0.51500005 -0.12499994 0.96500003 9465920
0.51500005 -0.11499994 0.96500003 8413232
0.52500004 -0.12499994 0.96500003 9465920
0.52500004 -0.11499994 0.96500003 9461808
0.51500005 -0.11499994 0.97500008 8413232
0.52500004 -0.12499994 0.97500008 9461808
0.52500004 -0.11499994 0.97500008 8413232
0.51500005 -0.094999939 0.96500003 6307872
0.51500005 -0.10499994 0.97500008 5255184
0.51500005 -0.094999939 0.97500008 5255200
0.52500004 -0.10499994 0.97500008 5255184
0.52500004 -0.10499994 0.98500007 4202512
0.52500004 -0.094999939 0.97500008 5255184
0.53500009 -0.13499995 0.95500004 5259312
0.53500009 -0.12499994 0.96500003 9465920
0.54500008 -0.12499994 0.96500003 5259296
0.53500009 -0.12499994 0.97500008 9461808
0.53500009 -0.11499994 0.97500008 8413232
0.53500009 -0.11499994 0.98500007 8413232
0.54500008 -0.12499994 0.97500008 8413232
0.54500008 -0.11499994 0.97500008 7360544
0.54500008 -0.11499994 0.98500007 7360544
0.53500009 -0.10499994 0.98500007 4206608
0.53500009 -0.094999939 0.97500008 5255184
0.53500009 -0.094999939 0.98500007 5255184
0.54500008 -0.094999939 0.98500007 5255184
0.55500007 -0.11499994 0.98500007 0
0.54500008 -0.11499994 0.99500006 8413232
0.53500009 -0.10499994 0.99500006 5255184
0.54500008 -0.10499994 0.99500006 4206608
0.54500008 -0.094999939 0.99500006 5255184
0.55500007 -0.11499994 0.99500006 2105360
0.55500007 -0.11499994 1.0050001 7360544
0.55500007 -0.10499994 0.99500006 2101248
0.55500007 -0.10499994 1.0050001 4206608
0.55500007 -0.094999939 0.99500006 3153920
0.55500007 -0.094999939 1.0050001 4206608
0.56500006 -0.094999939 1.0050001 2101248
0.56500006 -0.10499994 1.0150001 1052672
0.56500006 -0.10499994 1.0250001 5259296
0.49500006 -0.084999941 0.96500003 3153936
0.49500006 -0.074999943 0.96500003 3158032
0.50500005 -0.084999941 0.96500003 4206608
0.50500005 -0.074999943 0.96500003 7360560
0.49500006 -0.084999941 0.97500008 3153936
0.49500006 -0.074999943 0.97500008 5259312
0.50500005 -0.074999943 0.97500008 7360560
0.49500006 -0.064999938 0.96500003 8417376
0.50500005 -0.064999938 0.96500003 8413248
0.49500006 -0.064999938 0.97500008 9470064
0.49500006 -0.05499994 0.97500008 10522736
0.49500006 -0.05499994 0.98500007 11571312
0.50500005 -0.064999938 0.97500008 9461824
0.50500005 -0.05499994 0.97500008 10518624
0.50500005 -0.05499994 0.98500007 11571296
0.51500005 -0.084999941 0.96500003 6307872
0.51500005 -0.074999943 0.96500003 7360560
0.51500005 -0.084999941 0.97500008 6307872
0.51500005 -0.074999943 0.97500008 8409136
0.52500004 -0.084999941 0.97500008 6307872
0.52500004 -0.074999943 0.97500008 7360560
0.51500005 -0.064999938 0.97500008 9461824
0.51500005 -0.05499994 0.97500008 10518608
0.51500005 -0.05499994 0.98500007 11567200
0.52500004 -0.064999938 0.97500008 8413248
0.52500004 -0.05499994 0.97500008 9465936
0.52500004 -0.05499994 0.98500007 10518624
0.49500006 -0.044999942 0.98500007 12624000
0.50500005 -0.044999942 0.98500007 12624000
0.51500005 -0.044999942 0.98500007 12624000
0.52500004 -0.044999942 0.98500007 11571312
0.49500006 -0.044999942 0.99500006 12628096
0.49500006 -0.034999941 1.0050001 12628112
0.50500005 -0.044999942 0.99500006 12628112
0.50500005 -0.034999941 1.0050001 13676688
0.49500006 -0.034999941 1.0150001 12628112
0.49500006 -0.034999941 1.0250001 12628112
0.50500005 -0.034999941 1.0150001 13676688
0.50500005 -0.034999941 1.0250001 13676688
0.49500006 -0.024999941 1.0250001 12615792
0.50500005 -0.024999941 1.0250001 11554896
0.51500005 -0.044999942 0.99500006 12624016
0.51500005 -0.034999941 0.99500006 13676688
0.51500005 -0.034999941 1.0050001 13676688
0.52500004 -0.044999942 0.99500006 12624000
0.52500004 -0.034999941 0.99500006 12628112
0.52500004 -0.034999941 1.0050001 12628112
0.51500005 -0.034999941 1.0150001 13676688
0.51500005 -0.034999941 1.0250001 12628112
0.52500004 -0.034999941 1.0150001 12628112
0.51500005 -0.024999941 1.0150001 11563120
0.51500005 -0.024999941 1.0250001 11567232
0.51500005 -0.01499994 1.0250001 11563120
0.52500004 -0.024999941 1.0150001 9470080
0.52500004 -0.01499994 1.0150001 10518640
0.52500004 -0.01499994 1.0250001 10506304
0.53500009 -0.084999941 0.97500008 6307872
0.53500009 -0.084999941 0.98500007 6307872
0.53500009 -0.074999943 0.97500008 7356448
0.53500009 -0.074999943 0.98500007 6307872
0.54500008 -0.084999941 0.98500007 6307872
0.54500008 -0.074999943 0.97500008 6307872
0.54500008 -0.074999943 0.98500007 6307872
0.53500009 -0.064999938 0.97500008 7360560
0.53500009 -0.064999938 0.98500007 7360560
0.53500009 -0.05499994 0.97500008 8413248
0.53500009 -0.05499994 0.98500007 9465936
0.54500008 -0.064999938 0.97500008 7356464
0.54500008 -0.064999938 0.98500007 7360560
0.54500008 -0.05499994 0.98500007 8413248
0.55500007 -0.084999941 0.98500007 4202512
0.55500007 -0.074999943 0.98500007 5255184
0.56500006 -0.074999943 0.98500007 0
0.55500007 -0.064999938 0.98500007 7356448
0.55500007 -0.05499994 0.98500007 8413248
0.56500006 -0.064999938 0.98500007 0
0.56500006 -0.05499994 0.98500007 2105360
0.55500007 -0.084999941 0.99500006 6307872
0.56500006 -0.084999941 0.99500006 0
0.56500006 -0.084999941 1.0050001 7360560
0.56500006 -0.064999938 0.99500006 5259280
0.56500006 -0.05499994 0.99500006 10514528
0.53500009 -0.044999942 0.98500007 10518624
0.54500008 -0.044999942 0.98500007 9465936
0.55500007 -0.044999942 0.98500007 6307872
0.53500009 -0.034999941 0.99500006 12619904
0.53500009 -0.034999941 1.0050001 12624000
0.54500008 -0.044999942 0.99500006 10514512
0.54500008 -0.034999941 0.99500006 11567200
0.53500009 -0.024999941 1.0050001 8421488
0.54500008 -0.024999941 1.0050001 9461840
0.53500009 -0.024999941 1.0150001 7368800
0.53500009 -0.01499994 1.0150001 9474176
0.54500008 -0.024999941 1.0150001 8413264
0.54500008 -0.01499994 1.0150001 9461856
0.55500007 -0.044999942 0.99500006 7360560
0.55500007 -0.034999941 0.99500006 11567200
0.55500007 -0.034999941 1.0050001 12624000
0.56500006 -0.044999942 0.99500006 6307888
0.56500006 -0.044999942 1.0050001 7360560
0.56500006 -0.034999941 0.99500006 9465936
0.56500006 -0.034999941 1.0050001 10518624
0.55500007 -0.024999941 1.0050001 9457728
0.56500006 -0.024999941 1.0050001 7356464
0.55500007 -0.024999941 1.0150001 8400928
0.55500007 -0.01499994 1.0150001 8400944
0.56500006 -0.024999941 1.0150001 9457712
0.56500006 -0.024999941 1.0250001 9461824
0.56500006 -0.01499994 1.0150001 8409152
0.56500006 -0.01499994 1.0250001 7352368
0.49500006 -0.024999941 1.0350001 13672592
0.49500006 -0.024999941 1.0450001 13676688
0.49500006 -0.01499994 1.0450001 8417376
0.50500005 -0.024999941 1.0350001 11554880
0.50500005 -0.024999941 1.0450001 11554880
0.50500005 -0.01499994 1.0350001 11559008
0.50500005 -0.01499994 1.0450001 11567216
0.49500006 -0.01499994 1.0550001 13676688
0.50500005 -0.01499994 1.0550001 11571328
0.51500005 -0.01499994 1.0350001 11558992
0.57500005 -0.10499994 1.0250001 2101248
0.57500005 -0.094999939 1.0250001 5255184
0.58500004 -0.094999939 1.0250001 1052672
0.58500004 -0.10499994 1.0450001 3153936
0.62500006 -0.10499994 1.105 3153936
0.57500005 -0.044999942 1.0050001 8413248
0.57500005 -0.034999941 1.0050001 9465952
0.57500005 -0.044999942 1.0150001 6307872
0.57500005 -0.034999941 1.0150001 10518640
0.58500004 -0.044999942 1.0250001 6307872
0.58500004 -0.034999941 1.0150001 7360576
0.58500004 -0.034999941 1.0250001 10514528
0.57500005 -0.024999941 1.0150001 6303776
0.57500005 -0.024999941 1.0250001 7352352
0.57500005 -0.01499994 1.0250001 7352352
0.58500004 -0.024999941 1.0250001 11571312
0.59500009 -0.034999941 1.0250001 9465936
0.57500005 -0.024999941 1.0350001 6299664
0.58500004 -0.024999941 1.0450001 9461840
0.58500004 -0.01499994 1.0350001 6303776
0.59500009 -0.034999941 1.0350001 10518624
0.65500003 -0.094999939 0.93500006 1052672
0.71500003 -0.05499994 1.0150001 1052672
0.71500003 -0.05499994 1.0250001 1052672
0.71500003 -0.044999942 1.0150001 1052672
0.71500003 -0.044999942 1.0250001 1052672
0.72500008 -0.044999942 1.0350001 1052688
0.76500005 -0.094999939 1.825 5259312
0.77500004 -0.10499994 1.825 9470048
0.77500004 -0.094999939 1.8150001 1052672
0.77500004 -0.094999939 1.825 5259312
0.78500009 -0.10499994 1.8150001 7364672
0.78500009 -0.10499994 1.825 8417360
0.78500009 -0.094999939 1.8150001 3158048
0.78500009 -0.094999939 1.825 5259312
0.79500008 -0.094999939 1.8150001 2101264
0.80500007 -0.094999939 1.8150001 1052672
0.76500005 -0.094999939 1.835 5263424
0.76500005 -0.094999939 1.845 7364688
0.75500005 -0.094999939 1.865 8417360
0.76500005 -0.094999939 1.855 9470064
0.75500005 -0.094999939 1.875 8413248
0.75500005 -0.094999939 1.8950001 8413248
0.77500004 -0.10499994 1.835 10522736
0.77500004 -0.10499994 1.845 10522736
0.77500004 -0.094999939 1.835 8421472
0.77500004 -0.094999939 1.845 9474160
0.76500005 -0.084999941 1.8150001 2105360
0.76500005 -0.084999941 1.825 2105360
0.76500005 -0.074999943 1.8150001 1052688
0.76500005 -0.074999943 1.825 1052688
0.76500005 -0.064999938 1.8150001 1052688
0.76500005 -0.064999938 1.825 1052688
0.76500005 -0.05499994 1.825 1052688
0.75500005 -0.044999942 1.825 1052688
0.75500005 -0.034999941 1.825 1052688
0.76500005 -0.044999942 1.8150001 1052688
0.76500005 -0.044999942 1.825 1052688
0.76500005 -0.034999941 1.8150001 1052688
0.76500005 -0.034999941 1.825 1052688
0.75500005 -0.024999941 1.825 1052688
0.75500005 -0.01499994 1.825 1052688
0.76500005 -0.024999941 1.8150001 1052688
0.76500005 -0.024999941 1.825 1052688
0.76500005 -0.01499994 1.8150001 1052688
0.76500005 -0.01499994 1.825 1052688
0.77500004 -0.084999941 1.8150001 1052688
0.77500004 -0.084999941 1.825 2105360
0.77500004 -0.074999943 1.8150001 1052688
0.78500009 -0.084999941 1.8150001 1052688
0.78500009 -0.074999943 1.8150001 1052688
0.78500009 -0.064999938 1.8050001 1052672
0.78500009 -0.05499994 1.8050001 1052672
0.77500004 -0.064999938 1.8150001 1052688
0.77500004 -0.05499994 1.8150001 1052688
0.77500004 -0.05499994 1.825 1052688
0.78500009 -0.064999938 1.8150001 1052672
0.79500008 -0.074999943 1.8050001 1052672
0.79500008 -0.084999941 1.8150001 1052688
