# .PCD v0.7 - Point Cloud Data file format
VERSION 0.7
FIELDS x y z rgba
SIZE 4 4 4 4
TYPE F F F U
COUNT 1 1 1 1
WIDTH 1312
HEIGHT 1
VIEWPOINT 0 0 0 1 0 0 0
POINTS 1312
DATA ascii
-0.73499995 2.145 4.6950002 11583696
-0.71499991 2.125 4.7049999 11583696
-0.72499996 2.135 4.7049999 11583696
-0.78499997 2.125 4.7449999 11583696
-0.78499997 2.135 4.7150002 11583696
-0.77499992 2.135 4.7249999 11583696
-0.77499992 2.135 4.7449999 11583696
-0.75499994 2.125 4.7350001 11583696
-0.75499994 2.135 4.7249999 11583696
-0.75499994 2.125 4.7849998 11583696
-0.73499995 2.115 4.7150002 11583696
-0.74499995 2.115 4.7449999 11583696
-0.74499995 2.125 4.7350001 11583696
-0.74499995 2.135 4.7249999 11583696
-0.73499995 2.135 4.7150002 11583696
-0.72499996 2.135 4.7449999 11583696
-0.73499995 2.125 4.7649999 11583696
-0.74499995 2.125 4.7849998 11583696
-0.72499996 2.135 4.7750001 11583696
-0.78499997 2.165 4.645 11583696
-0.78499997 2.155 4.6550002 11583696
-0.77499992 2.155 4.6550002 11583696
-0.76499993 2.155 4.6350002 11583696
-0.72499996 2.155 4.7049999 11583696
-0.72499996 2.165 4.7049999 11583696
-0.71499991 2.155 4.7049999 11583696
-0.70499992 2.125 4.7049999 11583696
-0.69499993 2.125 4.7049999 11583696
-0.70499992 2.135 4.6950002 11583696
-0.67499995 2.125 4.7049999 11583696
-0.68499994 2.135 4.6849999 11583696
-0.67499995 2.135 4.6950002 11583696
-0.70499992 2.135 4.7449999 11583696
-0.69499993 2.135 4.7649999 11583696
-0.68499994 2.135 4.7649999 11583696
-0.67499995 2.145 4.7649999 11583696
-0.66499996 2.145 4.7249999 11583696
-0.66499996 2.135 4.7350001 11583696
-0.63499993 2.135 4.7849998 11583696
-0.69499993 2.155 4.7049999 11583696
-0.94499993 2.125 4.8049998 11583696
-0.93499994 2.125 4.7950001 11583696
-0.94499993 2.115 4.8150001 11583696
-0.91499996 2.115 4.8049998 11583696
-0.92499995 2.125 4.8150001 11583696
-0.89499992 2.105 4.8450003 11583696
-0.89499992 2.105 4.8650002 11583696
-0.88499993 2.105 4.8650002 11583696
-0.90499991 2.125 4.8150001 11583696
-0.92499995 2.095 4.875 11583696
-0.91499996 2.105 4.895 11583696
-0.94499993 2.095 4.915 11583696
-0.93499994 2.105 4.915 11583696
-0.92499995 2.105 4.9250002 11583696
-0.85499996 2.115 4.8250003 11583696
-0.84499997 2.115 4.8049998 11583696
-0.83499992 2.125 4.8150001 11583696
-0.86499995 2.115 4.8450003 11583696
-0.84499997 2.125 4.8450003 11583696
-0.82499993 2.125 4.835 11583696
-0.86499995 2.085 5.0650001 10531008
-0.85499996 2.075 5.0650001 10531008
-0.76499993 2.115 4.855 11583696
-0.71499991 2.135 4.7950001 11583696
-0.78499997 2.105 4.875 11583696
-0.76499993 2.105 4.875 11583696
-0.70499992 2.145 4.8049998 11583696
-0.69499993 2.145 4.7950001 11583696
-0.70499992 2.135 4.8150001 11583696
-0.69499993 2.135 4.8150001 11583696
-0.67499995 2.145 4.7950001 11583696
-0.67499995 2.135 4.8150001 11583696
-0.66499996 2.145 4.7950001 11583696
-0.65499991 2.135 4.8049998 11583696
-0.65499991 2.145 4.7950001 11583696
-0.66499996 2.135 4.8150001 11583696
-0.63499993 2.125 4.7950001 11583696
-0.66499996 2.105 4.9050002 11583696
-0.65499991 2.105 4.9050002 11583696
-0.63499993 2.105 4.875 11583696
-0.63499993 2.105 4.9050002 11583696
-0.66499996 2.105 4.9250002 10531008
-0.65499991 2.105 4.9250002 11583696
-0.66499996 2.115 4.895 10531008
-0.64499992 2.115 4.8850002 11583696
-0.72499996 2.085 5.0250001 10531008
-0.72499996 2.095 5.0250001 10531008
-0.71499991 2.085 5.0349998 10531008
-0.69499993 2.105 4.9850001 10531008
-0.68499994 2.105 4.9549999 11583696
-0.67499995 2.105 4.9549999 10531008
-0.67499995 2.105 4.9850001 10531008
-0.70499992 2.085 5.0149999 10531008
-0.70499992 2.095 5.0050001 10531008
-0.69499993 2.095 5.0050001 10531008
-0.65499991 2.105 4.9549999 10531008
-0.63499993 2.095 5.0149999 10531008
-0.64499992 2.095 5.0349998 10531008
-0.31499994 1.6650001 3.845 6320240
-0.33499995 1.6750001 3.845 7368816
-0.30499995 1.6650001 3.855 7372912
-0.25499994 1.6550001 3.865 7368816
-0.26499993 1.6550001 3.895 6316128
-0.25499994 1.6650001 3.925 6320240
-0.29499993 1.6850001 3.885 7372912
-0.30499995 1.6750001 3.895 6320224
-0.29499993 1.6850001 3.905 6320240
-0.28499994 1.6750001 3.915 6316128
-0.28499994 1.6850001 3.915 6320240
-0.27499995 1.6750001 3.915 6316128
-0.26499993 1.6750001 3.915 6320240
-0.24499995 1.6750001 3.9550002 7368816
-0.23499994 1.6850001 4.0050001 6316128
-0.19499993 1.6950001 4.0450001 7368816
-0.20499994 1.6950001 4.0549998 6320240
-0.19499993 1.6950001 4.0650001 5267552
-0.60499996 2.145 4.3450003 11583680
-0.59499997 2.145 4.3450003 11583680
-0.62499994 2.145 4.375 11583696
-0.61499995 2.145 4.375 11583696
-0.59499997 2.145 4.3850002 11583680
-0.58499992 2.145 4.355 11583696
-0.58499992 2.135 4.3850002 11583696
-0.58499992 2.145 4.3850002 11583680
-0.57499993 2.145 4.375 11583680
-0.56499994 2.135 4.3850002 11583680
-0.55499995 2.145 4.375 11583696
-0.60499996 2.145 4.4250002 11583696
-0.61499995 2.135 4.4349999 11583696
-0.62499994 2.145 4.4549999 11583696
-0.60499996 2.145 4.4549999 11583696
-0.59499997 2.145 4.4549999 11583696
-0.57499993 2.145 4.395 11583696
-0.58499992 2.145 4.4549999 11583680
-0.56499994 2.145 4.4349999 11583696
-0.61499995 2.165 4.3850002 11583680
-0.55499995 2.155 4.375 11583680
-0.61499995 2.165 4.4050002 11583696
-0.62499994 2.155 4.4250002 11583696
-0.61499995 2.155 4.415 11583696
-0.62499994 2.155 4.4450002 11583696
-0.60499996 2.165 4.4450002 11583696
-0.59499997 2.155 4.4450002 11583680
-0.58499992 2.155 4.4450002 11583680
-0.55499995 2.155 4.4549999 11583680
-0.53499997 2.145 4.355 11583696
-0.54499996 2.135 4.3850002 11583680
-0.54499996 2.145 4.375 11583696
-0.48499995 2.145 4.3850002 11583680
-0.52499992 2.145 4.4250002 11583680
-0.54499996 2.135 4.4349999 11583680
-0.53499997 2.145 4.4549999 11583680
-0.47499993 2.135 4.395 11579584
-0.48499995 2.145 4.415 11583680
-0.48499995 2.145 4.4549999 11583680
-0.47499993 2.145 4.4549999 11583680
-0.54499996 2.165 4.3850002 11583680
-0.51499993 2.155 4.375 11583680
-0.49499995 2.155 4.375 11583680
-0.47499993 2.155 4.3650002 11583680
-0.48499995 2.155 4.3850002 11583680
-0.53499997 2.155 4.4050002 11583680
-0.54499996 2.155 4.4250002 11583680
-0.52499992 2.165 4.415 11583680
-0.51499993 2.165 4.4250002 11583680
-0.52499992 2.175 4.4050002 11583680
-0.54499996 2.155 4.4549999 11583680
-0.53499997 2.175 4.4549999 11583680
-0.50499994 2.155 4.4050002 11583680
-0.50499994 2.155 4.415 11583680
-0.49499995 2.155 4.415 11583680
-0.47499993 2.155 4.4050002 11583680
-0.49499995 2.155 4.4450002 11579584
-0.50499994 2.165 4.4650002 11583680
-0.46499994 2.135 4.355 11583680
-0.46499994 2.135 4.3850002 10531008
-0.45499995 2.135 4.3850002 11579584
-0.45499995 2.145 4.3850002 11583680
-0.41499993 2.145 4.3850002 11583680
-0.39499995 2.145 4.3650002 10531008
-0.46499994 2.135 4.395 11579584
-0.45499995 2.145 4.4250002 11583680
-0.45499995 2.145 4.4549999 11583680
-0.44499993 2.145 4.4450002 11579584
-0.44499993 2.135 4.4650002 11579584
-0.43499994 2.135 4.4549999 10531008
-0.43499994 2.145 4.4549999 10531008
-0.42499995 2.145 4.4549999 10531008
-0.40499994 2.155 4.3650002 10531008
-0.45499995 2.165 4.4050002 11583680
-0.44499993 2.165 4.4050002 11583680
-0.44499993 2.165 4.415 11583680
-0.44499993 2.155 4.4450002 11583680
-0.44499993 2.165 4.4349999 10531008
-0.43499994 2.155 4.4450002 11583680
-0.43499994 2.165 4.4349999 11583680
-0.42499995 2.165 4.395 11583680
-0.41499993 2.165 4.395 10531008
-0.40499994 2.155 4.4050002 10531008
-0.39499995 2.165 4.4250002 10531008
-0.42499995 2.165 4.4349999 11583680
-0.42499995 2.165 4.4650002 11583680
-0.41499993 2.165 4.4549999 11583680
-0.40499994 2.175 4.4650002 10531008
-0.37499994 2.145 4.355 10531008
-0.36499995 2.145 4.355 11583680
-0.36499995 2.145 4.3650002 10531008
-0.35499993 2.135 4.3650002 10531008
-0.34499994 2.145 4.355 10531008
-0.34499994 2.145 4.3850002 10531008
-0.37499994 2.145 4.395 10531008
-0.35499993 2.145 4.395 10531008
-0.34499994 2.145 4.395 10531008
-0.33499995 2.145 4.415 10531008
-0.32499993 2.145 4.4349999 10531008
-0.35499993 2.155 4.375 11583680
-0.33499995 2.165 4.3850002 10531008
-0.31499994 2.165 4.3850002 10531008
-0.38499993 2.155 4.395 10531008
-0.38499993 2.155 4.4450002 10531008
-0.38499993 2.165 4.4349999 10531008
-0.37499994 2.155 4.4450002 10531008
-0.36499995 2.155 4.4450002 10531008
-0.35499993 2.155 4.4549999 10531008
-0.33499995 2.165 4.415 10531008
-0.32499993 2.165 4.395 10531008
-0.33499995 2.165 4.4549999 10531008
-0.32499993 2.165 4.4450002 10531008
-0.31499994 2.165 4.4349999 10531008
-0.32499993 2.175 4.4450002 10531008
-0.31499994 2.1849999 4.4549999 10531008
-0.29499993 2.145 4.3650002 10531008
-0.28499994 2.135 4.3650002 10531008
-0.28499994 2.145 4.355 10531008
-0.27499995 2.145 4.355 10531008
-0.27499995 2.145 4.375 10531008
-0.25499994 2.125 4.335 10531008
-0.26499993 2.145 4.355 10531008
-0.25499994 2.135 4.3850002 10531008
-0.24499995 2.145 4.355 10531008
-0.24499995 2.145 4.3650002 10531008
-0.23499994 2.135 4.3850002 10531008
-0.27499995 2.145 4.395 10531008
-0.27499995 2.135 4.4349999 10531008
-0.27499995 2.145 4.4650002 10531008
-0.26499993 2.125 4.4250002 10531008
-0.25499994 2.125 4.4250002 10531008
-0.25499994 2.135 4.4050002 10531008
-0.26499993 2.135 4.415 10531008
-0.23499994 2.135 4.4050002 10531008
-0.25499994 2.125 4.4349999 10531008
-0.26499993 2.125 4.4650002 10531008
-0.26499993 2.135 4.4349999 10531008
-0.24499995 2.135 4.4349999 10531008
-0.24499995 2.135 4.4549999 10531008
-0.23499994 2.155 4.3850002 10531008
-0.23499994 2.165 4.3850002 10531008
-0.29499993 2.155 4.4050002 10531008
-0.28499994 2.155 4.4349999 10531008
-0.28499994 2.155 4.4450002 10531008
-0.27499995 2.155 4.4450002 10531008
-0.26499993 2.155 4.415 10531008
-0.21499994 2.135 4.3450003 10531008
-0.20499994 2.145 4.3450003 10531008
-0.19499993 2.145 4.3850002 10531008
-0.18499994 2.135 4.3250003 10531008
-0.17499994 2.135 4.335 10531008
-0.22499993 2.145 4.4349999 10531008
-0.21499994 2.145 4.4349999 10531008
-0.20499994 2.145 4.4549999 10530992
-0.17499994 2.135 4.4650002 10531008
-0.16499995 2.145 4.4450002 10531008
-0.15499994 2.135 4.4450002 10531008
-0.15499994 2.135 4.4650002 11583680
-0.16499995 2.155 4.3650002 10531008
-0.22499993 2.165 4.395 10531008
-0.22499993 2.155 4.415 10531008
-0.22499993 2.165 4.415 10531008
-0.21499994 2.165 4.415 10531008
-0.20499994 2.155 4.4050002 10531008
-0.21499994 2.155 4.4349999 10531008
-0.20499994 2.155 4.4450002 10531008
-0.20499994 2.165 4.4349999 10531008
-0.19499993 2.175 4.4549999 10531008
-0.17499994 2.155 4.395 10531008
-0.15499994 2.155 4.395 10530992
-0.16499995 2.165 4.415 10531008
-0.17499994 2.165 4.4650002 10530992
-0.18499994 2.175 4.4549999 10531008
-0.16499995 2.165 4.4349999 10530992
-0.15499994 2.155 4.4450002 10531008
-0.14499994 2.135 4.355 10530992
-0.13499995 2.145 4.3650002 9482416
-0.14499994 2.135 4.415 10531008
-0.074999943 2.145 4.4250002 10531008
-0.084999941 2.145 4.4349999 10531008
-0.084999941 2.145 4.4650002 10531008
-0.14499994 2.155 4.375 10531008
-0.13499995 2.155 4.3850002 10531008
-0.074999943 2.165 4.3850002 10530992
-0.11499994 2.165 4.395 10530992
-0.14499994 2.155 4.4650002 10531008
-0.13499995 2.165 4.4549999 10530992
-0.13499995 2.165 4.4650002 10531008
-0.084999941 2.155 4.415 10531008
-0.094999939 2.165 4.4450002 10531008
-0.10499994 2.165 4.4650002 10531008
-0.094999939 2.155 4.4549999 10531008
-0.084999941 2.175 4.4349999 10530992
-0.074999943 2.175 4.4450002 9478320
-0.05499994 2.145 4.3450003 10531008
-0.034999941 2.145 4.3450003 10531008
-0.024999941 2.135 4.3650002 10531008
-0.024999941 2.145 4.355 10531008
-0.024999941 2.145 4.4050002 10530992
-0.01499994 2.145 4.415 10530992
-0.0049999403 2.145 4.395 10531008
-0.0049999403 2.145 4.415 10531008
-0.0049999403 2.145 4.4450002 9478304
-0.044999942 2.155 4.3650002 10531008
-0.01499994 2.155 4.3650002 10531008
-0.064999938 2.165 4.4250002 9478304
-0.064999938 2.155 4.4450002 10531008
-0.044999942 2.165 4.4349999 9478304
-0.034999941 2.165 4.4349999 9478304
-0.01499994 2.155 4.395 10531008
-0.01499994 2.155 4.415 10531008
-0.0049999403 2.165 4.4250002 10531008
-0.0049999403 2.175 4.415 10531008
-0.024999941 2.155 4.4450002 9478320
-0.62499994 2.145 4.4749999 11583696
-0.62499994 2.145 4.4949999 11583696
-0.61499995 2.145 4.5050001 11583696
-0.60499996 2.145 4.4850001 11583696
-0.59499997 2.145 4.4749999 11583696
-0.62499994 2.145 4.5349998 11583696
-0.61499995 2.145 4.5349998 11583696
-0.58499992 2.145 4.4850001 11583696
-0.56499994 2.145 4.5450001 11583696
-0.62499994 2.145 4.585 11583680
-0.60499996 2.125 4.5549998 11583680
-0.59499997 2.125 4.5650001 11583680
-0.60499996 2.135 4.5650001 11583680
-0.60499996 2.145 4.5650001 11583696
-0.59499997 2.135 4.5549998 11583696
-0.60499996 2.135 4.605 9478304
-0.58499992 2.135 4.5650001 11583696
-0.58499992 2.145 4.5549998 11583696
-0.57499993 2.145 4.585 11583696
-0.55499995 2.145 4.5650001 11583680
-0.58499992 2.145 4.605 11583680
-0.58499992 2.135 4.6150002 11583680
-0.57499993 2.145 4.6150002 11583696
-0.56499994 2.145 4.6150002 11583696
-0.55499995 2.145 4.6150002 11583696
-0.61499995 2.165 4.4749999 11583696
-0.60499996 2.165 4.5450001 11583696
-0.59499997 2.165 4.5349998 11583696
-0.57499993 2.155 4.4749999 11583680
-0.57499993 2.155 4.5050001 11583696
-0.56499994 2.165 4.4949999 11583680
-0.55499995 2.155 4.5050001 11583680
-0.57499993 2.165 4.5349998 11583696
-0.56499994 2.155 4.5450001 11583696
-0.56499994 2.165 4.5349998 11583696
-0.55499995 2.155 4.5450001 11583696
-0.55499995 2.165 4.5450001 11583696
-0.56499994 2.175 4.5349998 11583680
-0.62499994 2.155 4.5650001 11583696
-0.60499996 2.155 4.5549998 11583696
-0.59499997 2.165 4.5650001 11583696
-0.59499997 2.155 4.585 11583696
-0.58499992 2.165 4.5650001 11583696
-0.56499994 2.155 4.5950003 11583696
-0.53499997 2.135 4.5450001 11583680
-0.52499992 2.145 4.5250001 11583696
-0.51499993 2.145 4.5349998 11583680
-0.51499993 2.145 4.5450001 11583696
-0.49499995 2.145 4.5349998 11583680
-0.48499995 2.145 4.5450001 11583680
-0.54499996 2.145 4.5650001 11583680
-0.53499997 2.145 4.585 11583680
-0.52499992 2.145 4.585 11583696
-0.50499994 2.145 4.5549998 11583680
-0.47499993 2.145 4.5549998 11583680
-0.48499995 2.145 4.6150002 11583680
-0.47499993 2.145 4.6150002 11583680
-0.52499992 2.155 4.4749999 11583680
-0.51499993 2.155 4.4850001 11583680
-0.52499992 2.155 4.5050001 11583696
-0.51499993 2.155 4.4949999 11583680
-0.52499992 2.1849999 4.4749999 11583680
-0.54499996 2.155 4.5250001 11583696
-0.54499996 2.165 4.5250001 11583696
-0.54499996 2.155 4.5450001 11583696
-0.51499993 2.155 4.5149999 11583680
-0.52499992 2.155 4.5349998 11583680
-0.49499995 2.155 4.4749999 11583680
-0.50499994 2.155 4.4949999 11579584
-0.48499995 2.155 4.4949999 10531008
-0.47499993 2.155 4.5050001 11583680
-0.50499994 2.155 4.5149999 11583680
-0.49499995 2.165 4.5450001 11583680
-0.47499993 2.155 4.5250001 10531008
-0.48499995 2.155 4.5450001 11583680
-0.54499996 2.155 4.5950003 11583680
-0.54499996 2.155 4.625 11583696
-0.51499993 2.155 4.605 11583680
-0.51499993 2.155 4.625 11583680
-0.50499994 2.155 4.5549998 11583680
-0.49499995 2.155 4.5650001 11583680
-0.49499995 2.155 4.5950003 11583680
-0.50499994 2.155 4.625 11583680
-0.48499995 2.155 4.605 11583680
-0.47499993 2.155 4.5950003 11583680
-0.57499993 2.145 4.6350002 11583680
-0.56499994 2.145 4.6350002 11583680
-0.55499995 2.145 4.665 11583680
-0.57499993 2.145 4.6750002 11583680
-0.62499994 2.125 4.7849998 11583696
-0.62499994 2.135 4.7750001 11583696
-0.62499994 2.145 4.7750001 11583696
-0.59499997 2.135 4.7750001 11583680
-0.54499996 2.145 4.6350002 11583680
-0.54499996 2.145 4.6550002 11583680
-0.51499993 2.145 4.665 11583680
-0.54499996 2.145 4.6849999 10530992
-0.53499997 2.135 4.6750002 11583680
-0.53499997 2.145 4.6750002 11583696
-0.52499992 2.125 4.6750002 10531008
-0.52499992 2.135 4.6750002 11583680
-0.50499994 2.135 4.6350002 11583680
-0.50499994 2.145 4.6350002 11583680
-0.49499995 2.135 4.645 11583680
-0.49499995 2.145 4.6350002 11583696
-0.50499994 2.135 4.665 11583680
-0.49499995 2.135 4.665 11583680
-0.47499993 2.145 4.6350002 11583680
-0.48499995 2.145 4.665 11583680
-0.50499994 2.125 4.6849999 11583680
-0.49499995 2.125 4.6849999 11583680
-0.49499995 2.125 4.7049999 9478320
-0.48499995 2.145 4.6849999 11583680
-0.48499995 2.135 4.7049999 10531008
-0.47499993 2.145 4.6950002 11583680
-0.47499993 2.115 4.7150002 11583680
-0.48499995 2.135 4.7150002 10530992
-0.47499993 2.135 4.7249999 10531008
-0.47499993 2.145 4.7150002 10531008
-0.53499997 2.155 4.6550002 11583680
-0.52499992 2.155 4.6350002 11583680
-0.51499993 2.155 4.6550002 11583680
-0.46499994 2.145 4.4749999 11579584
-0.45499995 2.135 4.4850001 10531008
-0.43499994 2.135 4.4949999 11583680
-0.46499994 2.145 4.5349998 11583680
-0.42499995 2.145 4.4749999 10531008
-0.41499993 2.145 4.4850001 10531008
-0.40499994 2.145 4.5050001 10531008
-0.39499995 2.135 4.5050001 10531008
-0.41499993 2.145 4.5149999 11583680
-0.41499993 2.145 4.5349998 11583680
-0.40499994 2.145 4.5250001 10531008
-0.40499994 2.135 4.5349998 10531008
-0.39499995 2.135 4.5349998 10531008
-0.46499994 2.145 4.5750003 11583680
-0.43499994 2.145 4.5549998 11579584
-0.44499993 2.145 4.5750003 11583680
-0.46499994 2.145 4.6150002 11583696
-0.45499995 2.145 4.6150002 11583680
-0.43499994 2.145 4.5950003 11579584
-0.43499994 2.145 4.605 11579584
-0.42499995 2.145 4.5650001 11583680
-0.42499995 2.135 4.5750003 10531008
-0.42499995 2.145 4.605 11583680
-0.41499993 2.145 4.6150002 11579584
-0.39499995 2.145 4.5950003 10531008
-0.46499994 2.155 4.5250001 10531008
-0.45499995 2.155 4.5450001 11583680
-0.44499993 2.155 4.5450001 11583680
-0.41499993 2.155 4.4749999 11583680
-0.41499993 2.175 4.4850001 10531008
-0.40499994 2.165 4.4749999 10531008
-0.40499994 2.155 4.5050001 11583680
-0.40499994 2.165 4.4949999 10531008
-0.39499995 2.155 4.5050001 10531008
-0.39499995 2.165 4.4949999 10531008
-0.42499995 2.155 4.5149999 11579584
-0.39499995 2.155 4.5250001 10531008
-0.43499994 2.155 4.5549998 10531008
-0.44499993 2.155 4.5750003 11583680
-0.46499994 2.165 4.5950003 11583680
-0.36499995 2.135 4.5050001 11583680
-0.38499993 2.145 4.5149999 10531008
-0.38499993 2.135 4.5450001 10531008
-0.35499993 2.135 4.5149999 10531008
-0.34499994 2.145 4.5050001 10531008
-0.31499994 2.135 4.4850001 10531008
-0.34499994 2.145 4.5349998 11583680
-0.32499993 2.145 4.5450001 10531008
-0.37499994 2.145 4.5650001 10531008
-0.35499993 2.145 4.5549998 10531008
-0.31499994 2.145 4.6150002 11583680
-0.31499994 2.145 4.625 11583680
-0.37499994 2.165 4.4949999 10531008
-0.36499995 2.155 4.4749999 10531008
-0.38499993 2.165 4.5250001 10531008
-0.36499995 2.155 4.5149999 10531008
-0.36499995 2.165 4.5250001 10531008
-0.35499993 2.155 4.5149999 10531008
-0.35499993 2.165 4.5250001 10531008
-0.35499993 2.175 4.5149999 10531008
-0.34499994 2.155 4.5050001 11583680
-0.34499994 2.165 4.4949999 10531008
-0.32499993 2.165 4.4850001 10531008
-0.31499994 2.165 4.4749999 10531008
-0.32499993 2.155 4.4949999 10531008
-0.31499994 2.155 4.5050001 10531008
-0.31499994 2.175 4.5050001 10531008
-0.33499995 2.155 4.5149999 10531008
-0.33499995 2.155 4.5450001 10531008
-0.38499993 2.155 4.605 11583680
-0.37499994 2.155 4.6150002 11583680
-0.36499995 2.155 4.605 11583680
-0.35499993 2.155 4.605 10531008
-0.35499993 2.155 4.625 10531008
-0.34499994 2.155 4.5750003 10531008
-0.33499995 2.155 4.5750003 10531008
-0.32499993 2.155 4.5750003 10531008
-0.33499995 2.155 4.605 10531008
-0.31499994 2.165 4.5950003 10531008
-0.46499994 2.145 4.645 11583696
-0.45499995 2.145 4.645 11583680
-0.46499994 2.145 4.665 11583680
-0.45499995 2.145 4.665 11583680
-0.44499993 2.145 4.645 11583680
-0.45499995 2.145 4.7049999 10531008
-0.42499995 2.145 4.645 11583680
-0.41499993 2.145 4.645 11583680
-0.42499995 2.125 4.7049999 11583680
-0.42499995 2.135 4.7049999 11583680
-0.40499994 2.125 4.6849999 11583680
-0.39499995 2.125 4.6849999 11583696
-0.40499994 2.125 4.7049999 11583680
-0.39499995 2.135 4.6750002 11583680
-0.39499995 2.145 4.6750002 10531008
-0.40499994 2.145 4.6950002 11583680
-0.46499994 2.125 4.7150002 11583680
-0.46499994 2.125 4.7449999 11583680
-0.45499995 2.125 4.7350001 11583680
-0.43499994 2.125 4.7449999 11583680
-0.44499993 2.135 4.7249999 11583680
-0.43499994 2.135 4.7249999 11583680
-0.43499994 2.145 4.7150002 11583680
-0.46499994 2.125 4.7649999 9478304
-0.45499995 2.125 4.7649999 11583680
-0.44499993 2.125 4.7649999 11583680
-0.42499995 2.125 4.7350001 11583680
-0.41499993 2.125 4.7449999 11583680
-0.39499995 2.135 4.7249999 11583696
-0.40499994 2.135 4.7449999 11583680
-0.42499995 2.125 4.7649999 11583680
-0.41499993 2.125 4.7649999 11583680
-0.42499995 2.125 4.7849998 11583680
-0.40499994 2.125 4.7750001 11583680
-0.40499994 2.125 4.7849998 11583680
-0.41499993 2.165 4.6350002 10531008
-0.40499994 2.155 4.665 10531008
-0.40499994 2.165 4.6550002 11579584
-0.39499995 2.165 4.6550002 11583680
-0.42499995 2.155 4.6849999 10531008
-0.39499995 2.165 4.6750002 10531008
-0.42499995 2.155 4.7150002 10531008
-0.37499994 2.145 4.6550002 11583680
-0.35499993 2.145 4.665 11583680
-0.38499993 2.135 4.6750002 11583680
-0.38499993 2.135 4.6950002 11583680
-0.36499995 2.145 4.6750002 11583680
-0.36499995 2.145 4.6849999 11583680
-0.35499993 2.145 4.6950002 11583680
-0.31499994 2.125 4.6550002 11583680
-0.31499994 2.135 4.645 11579584
-0.32499993 2.145 4.6550002 11579584
-0.34499994 2.145 4.6750002 11579584
-0.34499994 2.145 4.6849999 11583680
-0.33499995 2.135 4.6750002 11583680
-0.33499995 2.135 4.6950002 11583680
-0.31499994 2.125 4.6750002 11583680
-0.37499994 2.145 4.7150002 11583680
-0.38499993 2.135 4.7350001 11583680
-0.37499994 2.145 4.7449999 11583680
-0.35499993 2.145 4.7249999 11579584
-0.38499993 2.125 4.7849998 11583680
-0.37499994 2.125 4.7849998 11583680
-0.38499993 2.145 4.7649999 11583680
-0.37499994 2.135 4.7649999 11583680
-0.38499993 2.135 4.7750001 11583680
-0.37499994 2.135 4.7849998 11583680
-0.36499995 2.135 4.7649999 11583680
-0.36499995 2.145 4.7550001 11583680
-0.36499995 2.135 4.7849998 11583680
-0.35499993 2.145 4.7750001 11583680
-0.34499994 2.145 4.7249999 11583680
-0.33499995 2.135 4.7350001 11583680
-0.32499993 2.125 4.7150002 11583680
-0.34499994 2.145 4.7550001 11583680
-0.33499995 2.145 4.7750001 11583680
-0.32499993 2.135 4.7649999 11583680
-0.37499994 2.155 4.6350002 10531008
-0.37499994 2.155 4.6550002 10531008
-0.36499995 2.155 4.6350002 10531008
-0.36499995 2.155 4.6550002 10531008
-0.35499993 2.155 4.6550002 10531008
-0.34499994 2.155 4.6350002 10531008
-0.34499994 2.155 4.6550002 11583680
-0.32499993 2.155 4.6350002 10531008
-0.32499993 2.155 4.6550002 11579584
-0.61499995 2.125 4.7950001 11583696
-0.62499994 2.125 4.8150001 10531008
-0.59499997 2.115 4.855 11583696
-0.58499992 2.105 4.8650002 11583696
-0.57499993 2.125 4.8250003 10531008
-0.56499994 2.125 4.8250003 11583696
-0.55499995 2.125 4.8250003 11583680
-0.57499993 2.115 4.835 11583680
-0.57499993 2.115 4.855 11583696
-0.56499994 2.115 4.835 11583680
-0.55499995 2.115 4.835 11583680
-0.56499994 2.115 4.855 11583696
-0.55499995 2.115 4.8650002 11583680
-0.61499995 2.105 4.9050002 11583696
-0.60499996 2.105 4.875 11583696
-0.59499997 2.105 4.875 11579600
-0.62499994 2.115 4.8850002 11583696
-0.58499992 2.105 4.895 11579584
-0.58499992 2.105 4.9250002 11579584
-0.57499993 2.115 4.8850002 11579584
-0.55499995 2.115 4.8850002 11583680
-0.56499994 2.115 4.9050002 11583680
-0.57499993 2.115 4.915 11583680
-0.53499997 2.125 4.835 11583680
-0.54499996 2.115 4.8650002 11579584
-0.52499992 2.125 4.8450003 11583680
-0.52499992 2.115 4.8650002 11579584
-0.53499997 2.105 4.895 11579584
-0.51499993 2.105 4.9050002 10531008
-0.54499996 2.105 4.9250002 11583680
-0.53499997 2.105 4.9250002 11579584
-0.54499996 2.115 4.895 11583680
-0.54499996 2.115 4.9050002 11579584
-0.53499997 2.115 4.895 11583680
-0.59499997 2.105 4.9549999 11579584
-0.62499994 2.105 5.0250001 10531008
-0.58499992 2.105 4.9850001 10531008
-0.62499994 2.095 5.0349998 10531008
-0.51499993 2.105 5.0250001 10531008
-0.50499994 2.105 5.0250001 10531008
-0.49499995 2.105 5.0149999 10531008
-0.52499992 2.095 5.0549998 10531008
-0.52499992 2.105 5.0549998 10531008
-0.53499997 2.085 5.0750003 10531008
-0.52499992 2.085 5.0750003 10531008
-0.51499993 2.085 5.0750003 10531008
-0.50499994 2.085 5.0549998 10531008
-0.50499994 2.095 5.0450001 10531008
-0.49499995 2.095 5.085 10531008
-0.41499993 2.125 4.8250003 8425616
-0.40499994 2.115 4.7950001 10535104
-0.39499995 2.115 4.7950001 11583680
-0.37499994 2.115 4.8049998 11583680
-0.38499993 2.115 4.8250003 10531008
-0.36499995 2.125 4.8250003 11583680
-0.35499993 2.145 4.8049998 11579584
-0.36499995 2.135 4.8150001 11579584
-0.35499993 2.135 4.8150001 11579584
-0.36499995 2.115 4.835 11583680
-0.35499993 2.125 4.835 11583680
-0.35499993 2.115 4.8650002 9478320
-0.35499993 2.125 4.855 11583680
-0.33499995 2.135 4.8049998 11583680
-0.33499995 2.145 4.8049998 11583680
-0.32499993 2.125 4.8250003 11583680
-0.32499993 2.145 4.7950001 11583680
-0.31499994 2.145 4.7950001 11583680
-0.32499993 2.135 4.8150001 11583680
-0.31499994 2.135 4.8150001 11583680
-0.34499994 2.125 4.835 11583680
-0.34499994 2.125 4.855 11583680
-0.33499995 2.115 4.8650002 10535104
-0.31499994 2.125 4.8450003 10531008
-0.32499993 2.125 4.855 11583680
-0.31499994 2.135 4.835 11583680
-0.34499994 2.125 4.875 11583680
-0.33499995 2.115 4.8850002 9478304
-0.31499994 2.115 4.8850002 11583680
-0.31499994 2.125 4.875 11583680
-0.30499995 2.145 4.5050001 10531008
-0.30499995 2.135 4.5149999 11583680
-0.29499993 2.145 4.5250001 10531008
-0.24499995 2.135 4.4749999 10530992
-0.23499994 2.135 4.4850001 10531008
-0.24499995 2.135 4.5050001 10531008
-0.23499994 2.135 4.5050001 10531008
-0.24499995 2.145 4.5450001 11579584
-0.23499994 2.135 4.5349998 11583680
-0.29499993 2.145 4.585 10531008
-0.28499994 2.145 4.5750003 10531008
-0.30499995 2.125 4.625 11583680
-0.29499993 2.135 4.5950003 11583680
-0.30499995 2.135 4.6150002 11583680
-0.28499994 2.135 4.5950003 10531008
-0.27499995 2.145 4.5950003 10531008
-0.28499994 2.135 4.6150002 11583680
-0.27499995 2.145 4.6150002 11579584
-0.23499994 2.145 4.5950003 11579584
-0.30499995 2.165 4.4749999 10531008
-0.30499995 2.165 4.4949999 10531008
-0.29499993 2.155 4.5050001 10531008
-0.29499993 2.165 4.4949999 10531008
-0.30499995 2.1849999 4.4749999 10531008
-0.30499995 2.165 4.5250001 10531008
-0.29499993 2.155 4.5149999 10531008
-0.23499994 2.155 4.4749999 10531008
-0.23499994 2.155 4.5050001 10530992
-0.29499993 2.155 4.5750003 10531008
-0.28499994 2.155 4.585 10531008
-0.28499994 2.165 4.5750003 10531008
-0.27499995 2.165 4.585 10531008
-0.26499993 2.155 4.605 11583680
-0.26499993 2.165 4.5950003 10531008
-0.25499994 2.155 4.605 10531008
-0.26499993 2.155 4.625 11579584
-0.25499994 2.155 4.625 10531008
-0.23499994 2.155 4.625 10531008
-0.21499994 2.145 4.4850001 10530992
-0.22499993 2.135 4.5050001 10531008
-0.22499993 2.145 4.5149999 10531008
-0.22499993 2.135 4.5450001 10531008
-0.20499994 2.145 4.5349998 10531008
-0.19499993 2.145 4.5349998 10531008
-0.17499994 2.135 4.4749999 10531008
-0.18499994 2.145 4.5050001 10531008
-0.17499994 2.145 4.5250001 10531008
-0.18499994 2.145 4.5349998 10531008
-0.17499994 2.145 4.5450001 10531008
-0.15499994 2.145 4.5149999 10531008
-0.16499995 2.145 4.5349998 10531008
-0.16499995 2.145 4.5450001 10531008
-0.21499994 2.145 4.5549998 10531008
-0.21499994 2.145 4.585 10531008
-0.19499993 2.145 4.5650001 10531008
-0.22499993 2.145 4.6150002 10531008
-0.21499994 2.145 4.625 10531008
-0.20499994 2.145 4.605 10531008
-0.18499994 2.145 4.5549998 10531008
-0.17499994 2.145 4.585 10531008
-0.16499995 2.145 4.5750003 10531008
-0.18499994 2.145 4.6150002 10531008
-0.17499994 2.145 4.6150002 10531008
-0.16499995 2.145 4.6150002 10531008
-0.15499994 2.145 4.6150002 10531008
-0.21499994 2.155 4.4749999 10531008
-0.19499993 2.165 4.4749999 10530992
-0.19499993 2.155 4.4949999 10531008
-0.20499994 2.155 4.5149999 10531008
-0.20499994 2.165 4.5250001 10531008
-0.19499993 2.165 4.5349998 10531008
-0.18499994 2.155 4.4949999 10531008
-0.18499994 2.165 4.4949999 10530992
-0.18499994 2.175 4.4850001 10530992
-0.22499993 2.155 4.605 11579584
-0.20499994 2.155 4.5950003 10531008
-0.18499994 2.155 4.5950003 10531008
-0.30499995 2.125 4.6550002 11583680
-0.29499993 2.125 4.6550002 11583680
-0.29499993 2.135 4.645 11583680
-0.27499995 2.145 4.6350002 11583680
-0.27499995 2.145 4.665 11583680
-0.30499995 2.125 4.6750002 10531008
-0.29499993 2.125 4.6849999 11583680
-0.27499995 2.135 4.6750002 11583680
-0.28499994 2.135 4.6950002 11583680
-0.26499993 2.145 4.645 11583680
-0.25499994 2.145 4.645 10531008
-0.23499994 2.145 4.6350002 10531008
-0.26499993 2.145 4.6750002 11583680
-0.26499993 2.145 4.6950002 10531008
-0.24499995 2.145 4.6750002 11579584
-0.23499994 2.145 4.7049999 10531008
-0.30499995 2.125 4.7150002 11583680
-0.29499993 2.125 4.7150002 11583680
-0.30499995 2.135 4.7449999 10531008
-0.29499993 2.135 4.7449999 11583680
-0.28499994 2.135 4.7350001 11583680
-0.28499994 2.135 4.7449999 11583680
-0.27499995 2.145 4.7350001 11583680
-0.27499995 2.145 4.7449999 11583680
-0.29499993 2.135 4.7750001 11583680
-0.27499995 2.135 4.7550001 11583680
-0.28499994 2.135 4.7750001 11583680
-0.27499995 2.135 4.7849998 10531008
-0.25499994 2.145 4.7449999 10531008
-0.23499994 2.125 4.7350001 10531008
-0.24499995 2.135 4.7249999 11583680
-0.24499995 2.145 4.7150002 10531008
-0.23499994 2.145 4.7150002 11583680
-0.23499994 2.135 4.7350001 10531008
-0.25499994 2.125 4.7750001 10531008
-0.25499994 2.135 4.7550001 11583680
-0.24499995 2.125 4.7649999 11583680
-0.23499994 2.125 4.7750001 10531008
-0.24499995 2.135 4.7550001 10531008
-0.25499994 2.155 4.6750002 10531008
-0.25499994 2.155 4.7049999 11579584
-0.24499995 2.155 4.7049999 11579584
-0.20499994 2.145 4.6350002 10531008
-0.20499994 2.145 4.6550002 11579584
-0.19499993 2.145 4.665 10531008
-0.21499994 2.145 4.6750002 11579584
-0.21499994 2.145 4.6950002 10531008
-0.20499994 2.145 4.6849999 10531008
-0.20499994 2.135 4.7049999 10531008
-0.19499993 2.135 4.7049999 10531008
-0.19499993 2.145 4.6950002 10531008
-0.18499994 2.145 4.645 10531008
-0.17499994 2.145 4.645 10531008
-0.17499994 2.145 4.6550002 10531008
-0.16499995 2.145 4.645 10531008
-0.15499994 2.135 4.645 10531008
-0.15499994 2.145 4.6350002 10531008
-0.16499995 2.145 4.6550002 10531008
-0.17499994 2.145 4.6849999 10531008
-0.17499994 2.135 4.6950002 10531008
-0.16499995 2.135 4.6849999 10531008
-0.15499994 2.135 4.6750002 10531008
-0.16499995 2.135 4.6950002 10535104
-0.15499994 2.135 4.6950002 10531008
-0.21499994 2.135 4.7249999 10531008
-0.21499994 2.145 4.7249999 10531008
-0.21499994 2.135 4.7449999 10531008
-0.20499994 2.135 4.7350001 10531008
-0.19499993 2.135 4.7350001 10531008
-0.22499993 2.135 4.7750001 10531008
-0.20499994 2.135 4.7550001 10531008
-0.19499993 2.145 4.7649999 10531008
-0.17499994 2.135 4.7249999 10531008
-0.16499995 2.125 4.7150002 10531008
-0.16499995 2.125 4.7249999 10531008
-0.15499994 2.125 4.7449999 10531008
-0.15499994 2.135 4.7249999 10531008
-0.18499994 2.135 4.7550001 11583680
-0.15499994 2.125 4.7750001 10531008
-0.16499995 2.135 4.7750001 10531008
-0.22499993 2.155 4.6550002 10531008
-0.22499993 2.155 4.6849999 11579584
-0.13499995 2.135 4.5050001 10531008
-0.13499995 2.145 4.5050001 10531008
-0.12499994 2.145 4.5050001 10531008
-0.14499994 2.135 4.5149999 10531008
-0.14499994 2.135 4.5450001 10531008
-0.13499995 2.145 4.5450001 10531008
-0.11499994 2.145 4.5250001 10531008
-0.12499994 2.145 4.5349998 10531008
-0.12499994 2.145 4.5549998 10531008
-0.11499994 2.145 4.585 10531008
-0.13499995 2.135 4.625 10531008
-0.12499994 2.145 4.605 10531008
-0.11499994 2.145 4.605 10531008
-0.12499994 2.145 4.625 10531008
-0.11499994 2.135 4.6150002 10531008
-0.094999939 2.145 4.5549998 10531008
-0.10499994 2.135 4.585 10531008
-0.094999939 2.145 4.585 10531008
-0.084999941 2.135 4.5650001 10531008
-0.084999941 2.145 4.5650001 10531008
-0.074999943 2.135 4.5650001 10531008
-0.074999943 2.145 4.5549998 10531008
-0.10499994 2.135 4.625 10531008
-0.074999943 2.145 4.605 10531008
-0.084999941 2.145 4.6150002 10531008
-0.084999941 2.145 4.625 10531008
-0.13499995 2.155 4.4749999 10531008
-0.13499995 2.155 4.4949999 10531008
-0.12499994 2.155 4.4749999 10531008
-0.12499994 2.155 4.4949999 10531008
-0.11499994 2.155 4.5050001 10531008
-0.12499994 2.175 4.4749999 10531008
-0.12499994 2.175 4.4850001 10531008
-0.14499994 2.155 4.5250001 10531008
-0.14499994 2.165 4.5149999 10531008
-0.11499994 2.155 4.5250001 10531008
-0.10499994 2.155 4.4749999 10531008
-0.094999939 2.155 4.4749999 10531008
-0.094999939 2.155 4.5050001 10531008
-0.10499994 2.1849999 4.4749999 10531008
-0.084999941 2.155 4.4949999 10531008
-0.094999939 2.155 4.5149999 10531008
-0.094999939 2.155 4.5450001 10531008
-0.084999941 2.155 4.5250001 10531008
-0.074999943 2.155 4.5250001 10531008
-0.074999943 2.165 4.5250001 10531008
-0.084999941 2.155 4.5450001 10531008
-0.11499994 2.155 4.5750003 10531008
-0.13499995 2.155 4.605 10531008
-0.13499995 2.155 4.625 10531008
-0.12499994 2.155 4.5950003 10531008
-0.074999943 2.155 4.5549998 10531008
-0.034999941 2.145 4.5250001 10531008
-0.044999942 2.145 4.5450001 10531008
-0.024999941 2.145 4.5050001 10531008
-0.01499994 2.145 4.4949999 10531008
-0.024999941 2.145 4.5250001 10531008
-0.01499994 2.135 4.5149999 10531008
-0.0049999403 2.135 4.5149999 10531008
-0.0049999403 2.145 4.5149999 10531008
-0.05499994 2.145 4.5650001 10531008
-0.064999938 2.145 4.585 10531008
-0.05499994 2.145 4.585 10531008
-0.034999941 2.145 4.5549998 10531008
-0.064999938 2.145 4.6150002 10531008
-0.064999938 2.155 4.4850001 10531008
-0.064999938 2.155 4.4949999 10531008
-0.044999942 2.155 4.4850001 10531008
-0.034999941 2.155 4.4749999 10531008
-0.034999941 2.175 4.4850001 9478320
-0.064999938 2.155 4.5349998 10531008
-0.064999938 2.155 4.5450001 10531008
-0.044999942 2.155 4.5250001 10531008
-0.044999942 2.165 4.5149999 10531008
-0.034999941 2.155 4.5149999 10531008
-0.034999941 2.175 4.5349998 10531008
-0.024999941 2.175 4.5050001 10530992
-0.024999941 2.165 4.5250001 10531008
-0.01499994 2.165 4.5149999 10530992
-0.0049999403 2.165 4.5250001 10530992
-0.064999938 2.155 4.5650001 10531008
-0.05499994 2.155 4.625 10531008
-0.034999941 2.155 4.605 10531008
-0.034999941 2.155 4.625 10531008
-0.024999941 2.155 4.5650001 10531008
-0.01499994 2.165 4.5950003 10531008
-0.024999941 2.155 4.6150002 10531008
-0.01499994 2.165 4.625 10531008
-0.0049999403 2.165 4.605 10531008
-0.13499995 2.135 4.6550002 10531008
-0.12499994 2.145 4.6550002 10531008
-0.11499994 2.145 4.665 10531008
-0.14499994 2.135 4.6750002 10531008
-0.12499994 2.145 4.6849999 10531008
-0.12499994 2.135 4.7049999 10531008
-0.11499994 2.145 4.6950002 10531008
-0.10499994 2.135 4.645 10531008
-0.084999941 2.125 4.6350002 10531008
-0.084999941 2.125 4.6550002 10531008
-0.074999943 2.145 4.645 10531008
-0.074999943 2.135 4.665 10531008
-0.074999943 2.145 4.6550002 10531008
-0.10499994 2.135 4.6750002 10531008
-0.10499994 2.135 4.6950002 10531008
-0.084999941 2.135 4.7049999 10531008
-0.074999943 2.135 4.7049999 10531008
-0.14499994 2.145 4.7150002 10531008
-0.14499994 2.145 4.7449999 10531008
-0.11499994 2.145 4.7150002 10531008
-0.11499994 2.135 4.7350001 10531008
-0.14499994 2.135 4.7649999 10531008
-0.14499994 2.135 4.7849998 10531008
-0.13499995 2.145 4.7849998 10531008
-0.12499994 2.145 4.7550001 10531008
-0.11499994 2.145 4.7750001 10531008
-0.10499994 2.135 4.7249999 10531008
-0.094999939 2.145 4.7350001 10531008
-0.074999943 2.145 4.7449999 10531008
-0.10499994 2.135 4.7550001 10531008
-0.094999939 2.135 4.7649999 10531008
-0.094999939 2.135 4.7849998 10531008
-0.074999943 2.135 4.7649999 10531008
-0.074999943 2.135 4.7849998 10531008
-0.064999938 2.145 4.645 10531008
-0.064999938 2.145 4.665 10531008
-0.034999941 2.145 4.665 10531008
-0.064999938 2.145 4.6849999 10531008
-0.05499994 2.145 4.6750002 10531008
-0.05499994 2.145 4.6950002 10531008
-0.034999941 2.135 4.7049999 10531008
-0.034999941 2.145 4.6950002 10531008
-0.024999941 2.145 4.665 10531008
-0.01499994 2.145 4.665 10531008
-0.024999941 2.125 4.6849999 10531008
-0.01499994 2.125 4.6849999 10531008
-0.024999941 2.135 4.6750002 10531008
-0.01499994 2.135 4.6750002 10531008
-0.0049999403 2.135 4.6750002 10531008
-0.0049999403 2.145 4.6750002 10531008
-0.064999938 2.145 4.7150002 10531008
-0.05499994 2.145 4.7150002 10531008
-0.064999938 2.145 4.7449999 10531008
-0.05499994 2.145 4.7350001 10531008
-0.034999941 2.125 4.7449999 10531008
-0.034999941 2.135 4.7350001 10531008
-0.064999938 2.135 4.7550001 10531008
-0.05499994 2.135 4.7550001 10531008
-0.064999938 2.135 4.7849998 10531008
-0.05499994 2.135 4.7750001 10531008
-0.034999941 2.135 4.7750001 10531008
-0.024999941 2.125 4.7449999 10530992
-0.024999941 2.135 4.7150002 10531008
-0.01499994 2.135 4.7249999 10530992
-0.01499994 2.135 4.7550001 10530992
-0.024999941 2.135 4.7750001 10530992
-0.0049999403 2.145 4.7550001 10531008
-0.0049999403 2.145 4.7750001 10531008
-0.05499994 2.155 4.6550002 10531008
-0.034999941 2.155 4.6550002 10531008
-0.024999941 2.165 4.645 10531008
-0.01499994 2.155 4.6350002 10531008
-0.024999941 2.155 4.6550002 10531008
-0.01499994 2.155 4.6550002 10531008
-0.0049999403 2.155 4.6350002 10531008
-0.0049999403 2.165 4.6350002 10531008
-0.0049999403 2.155 4.665 10531008
-0.0049999403 2.155 4.7350001 10531008
-0.30499995 2.135 4.8250003 11583680
-0.28499994 2.135 4.8150001 11583680
-0.27499995 2.135 4.8150001 11583680
-0.30499995 2.115 4.8650002 11583680
-0.30499995 2.125 4.855 11583680
-0.29499993 2.125 4.8650002 10531008
-0.30499995 2.135 4.8450003 11583680
-0.27499995 2.125 4.855 10531008
-0.28499994 2.135 4.8450003 11583680
-0.27499995 2.135 4.835 11583680
-0.26499993 2.125 4.7950001 11583680
-0.26499993 2.125 4.8150001 10531008
-0.24499995 2.125 4.7950001 11583680
-0.23499994 2.125 4.8049998 11583680
-0.24499995 2.125 4.8250003 10531008
-0.26499993 2.115 4.8650002 11583680
-0.26499993 2.125 4.855 11583680
-0.25499994 2.125 4.855 10531008
-0.23499994 2.125 4.835 11583680
-0.23499994 2.125 4.8450003 10531008
-0.23499994 2.115 4.8650002 11583680
-0.27499995 2.105 4.9050002 10535104
-0.30499995 2.115 4.895 10531008
-0.27499995 2.115 4.8850002 11583680
-0.25499994 2.125 4.875 10531008
-0.26499993 2.115 4.895 11583680
-0.25499994 2.115 4.895 10531008
-0.23499994 2.125 4.9050002 10531008
-0.26499993 2.115 4.915 10535104
-0.25499994 2.115 4.915 10535104
-0.26499993 2.115 4.9450002 11583680
-0.21499994 2.125 4.8250003 10531008
-0.22499993 2.135 4.8150001 11583680
-0.19499993 2.125 4.8250003 10531008
-0.20499994 2.135 4.7950001 10531008
-0.20499994 2.135 4.8049998 10531008
-0.19499993 2.135 4.7950001 10531008
-0.19499993 2.135 4.8150001 10531008
-0.22499993 2.125 4.8450003 10531008
-0.21499994 2.125 4.835 10531008
-0.22499993 2.115 4.8650002 10531008
-0.21499994 2.115 4.8650002 10531008
-0.22499993 2.135 4.835 11583680
-0.19499993 2.125 4.8450003 10531008
-0.18499994 2.125 4.8250003 11583680
-0.17499994 2.125 4.8250003 10531008
-0.18499994 2.135 4.7950001 10531008
-0.18499994 2.135 4.8150001 10531008
-0.16499995 2.125 4.7950001 10531008
-0.15499994 2.125 4.7950001 10531008
-0.15499994 2.125 4.8250003 10531008
-0.18499994 2.125 4.8450003 10535104
-0.17499994 2.125 4.8450003 10531008
-0.15499994 2.125 4.8450003 10531008
-0.19499993 2.125 4.875 10531008
-0.18499994 2.125 4.875 10535104
-0.17499994 2.125 4.8850002 10531008
-0.18499994 2.125 4.9050002 10531008
-0.15499994 2.125 4.875 10531008
-0.16499995 2.115 4.9349999 10531008
-0.14499994 2.125 4.7950001 10531008
-0.14499994 2.125 4.8250003 10531008
-0.13499995 2.125 4.8250003 10531008
-0.13499995 2.135 4.8049998 10531008
-0.13499995 2.145 4.7950001 10531008
-0.11499994 2.125 4.8049998 10531008
-0.11499994 2.125 4.8250003 10531008
-0.11499994 2.135 4.7950001 10531008
-0.14499994 2.125 4.8450003 10531008
-0.13499995 2.115 4.8650002 10535104
-0.13499995 2.125 4.855 10531008
-0.11499994 2.125 4.855 10531008
-0.10499994 2.125 4.8250003 10531008
-0.10499994 2.135 4.7950001 10531008
-0.10499994 2.135 4.8150001 10531008
-0.094999939 2.135 4.8150001 10531008
-0.094999939 2.125 4.835 10531008
-0.094999939 2.125 4.8450003 10531008
-0.10499994 2.125 4.855 10531008
-0.14499994 2.105 4.9349999 10531008
-0.14499994 2.125 4.875 10531008
-0.14499994 2.125 4.9050002 10531008
-0.13499995 2.125 4.9050002 10531008
-0.11499994 2.125 4.8850002 10531008
-0.12499994 2.125 4.9050002 10531008
-0.14499994 2.115 4.9250002 10531008
-0.13499995 2.115 4.9250002 10531008
-0.13499995 2.115 4.9450002 10531008
-0.10499994 2.125 4.875 10531008
-0.094999939 2.125 4.875 10531008
-0.074999943 2.125 4.875 10531008
-0.084999941 2.115 4.895 10531008
-0.034999941 2.125 4.8250003 10531008
-0.034999941 2.135 4.8049998 10531008
-0.05499994 2.125 4.8450003 10531008
-0.034999941 2.125 4.8450003 10530992
-0.01499994 2.125 4.8250003 10531008
-0.024999941 2.135 4.8150001 10530992
-0.01499994 2.135 4.8150001 10531008
-0.024999941 2.125 4.835 10531008
-0.01499994 2.125 4.8450003 10530992
-0.024999941 2.125 4.855 10531008
-0.0049999403 2.125 4.855 10530992
-0.064999938 2.125 4.875 10531008
-0.05499994 2.125 4.8850002 10531008
-0.064999938 2.125 4.9050002 10531008
-0.05499994 2.125 4.9050002 10530992
-0.044999942 2.125 4.8850002 10531008
-0.044999942 2.115 4.9250002 10530992
-0.044999942 2.115 4.9450002 10530992
-0.01499994 2.125 4.875 10530992
-0.024999941 2.115 4.9349999 10530992
-0.094999939 2.115 4.9549999 10531008
-0.044999942 2.105 4.9650002 10530992
-0.024999941 2.115 4.9749999 10530992
-4.1749997 0.62500006 6.2649999 2109552
-4.2049999 0.76500005 6.2550001 2109536
-4.2950001 0.84500009 6.0750003 2109536
-3.9949999 0.67500007 6.2049999 3170480
-4.145 0.82500005 6.3450003 3166368
-4.1149998 0.80500007 6.3450003 3170480
-4.145 0.83500004 6.375 3170464
-4.2750001 1.5050001 6.125 3162224
-4.2849998 1.495 6.145 3162224
-4.2449999 1.485 6.1150002 3166336
-4.2849998 1.475 6.165 3166336
-4.2950001 1.485 6.2049999 3166320
-4.2649999 1.6850001 5.9949999 2109536
-4.2449999 1.625 6.1350002 3166336
-4.2449999 1.6350001 6.105 2113648
-4.2649999 1.9050001 6.0750003 3162224
-4.1849999 1.7750001 6.105 3162224
-4.2150002 1.8850001 6.125 3162224
-4.1349998 1.4250001 6.1750002 3166336
-4.1149998 1.3950001 6.2150002 3166336
-4.125 1.4150001 6.1950002 3162224
-4.0949998 1.4150001 6.2049999 3166336
-4.1349998 1.4150001 6.2350001 3166336
-4.0650001 1.375 6.3049998 4223152
-4.0250001 1.5350001 6.2150002 4219040
-4.125 1.4350001 6.2449999 3166352
-3.9949999 1.5250001 6.2550001 4223152
-4.1149998 1.725 6.2150002 3166336
-4.0949998 1.6950001 6.165 3166336
-4.085 1.6850001 6.1849999 3166336
-4.085 1.6950001 6.165 3166336
-4.0349998 1.725 6.1550002 4219024
-4.0250001 1.8050001 6.1350002 4214928
-4.0349998 1.7550001 6.1849999 4219040
-4.0650001 1.7750001 6.1950002 3166336
-4.0650001 1.835 6.165 3166336
-4.0549998 1.835 6.1750002 4214928
-4.0050001 1.8850001 6.1550002 4219024
-4.2150002 1.9150001 6.0349998 3162224
-4.1849999 1.9250001 6.0149999 3162224
-4.2449999 2.175 5.9050002 9478304
-4.2750001 2.2050002 5.9349999 9478304
-4.1950002 1.995 6.1950002 2113632
-4.2449999 2.385 5.875 8425616
-4.2350001 2.375 5.8850002 8425616
-4.1950002 2.2450001 5.875 8425632
-4.2350001 2.365 5.915 8425616
-4.2350001 2.365 5.9549999 7368848
-4.2150002 2.365 5.915 6320256
-4.2249999 2.385 5.9250002 7372928
-4.2350001 2.405 5.8850002 8421520
-4.2049999 2.5450001 5.7950001 8421520
-4.2350001 2.405 5.915 7372944
-4.2350001 2.405 5.9349999 8421520
-3.9949999 1.9350001 6.165 4219024
-4.0149999 1.9350001 6.1950002 4219024
-3.9949999 2.0550001 6.1550002 4214928
-4.1149998 2.165 6.0950003 2109520
-4.0749998 2.165 6.2049999 3162224
-4.0549998 2.145 6.1550002 3162208
-4.0450001 2.165 6.1550002 2113632
-3.9349999 1.965 6.1550002 4219024
-3.915 1.985 6.1550002 4219024
-3.915 2.0350001 6.145 4219024
-3.915 2.0150001 6.1550002 4219024
-3.9349999 2.105 6.2049999 4214912
-3.925 2.2150002 6.1150002 3162224
-4.125 2.2950001 6.0050001 2109520
-4.0250001 2.2550001 6.125 2109536
-3.9349999 2.2350001 6.1350002 3162224
-3.865 2.2850001 6.1750002 3162208
-3.885 2.375 6.1350002 2109536
-3.875 2.385 6.145 2109536
-3.885 2.365 6.1550002 3158112
-3.875 2.385 6.165 2109536
-3.875 2.405 6.165 2109536
-3.865 2.415 6.1849999 7372976
-3.855 2.395 6.1950002 9478336
-3.835 2.5450001 6.1150002 2109504
-4.8049998 1.875 7.1750002 3166320
-4.8049998 2.2550001 7.3150001 3166336
-3.615 2.0050001 6.0450001 15790320
-3.605 2.0050001 6.0650001 15790320
-3.7749999 2.2250001 6.2849998 15790320
-3.625 2.0350001 6.0950003 15790320
-3.8049998 2.2450001 6.2150002 11583712
-3.8049998 2.4950001 6.0750003 2109520
-3.8049998 2.425 6.2449999 11587824
-3.8049998 2.4450002 6.2750001 11587824
-3.8150001 2.4450002 6.3250003 11587808
-3.6849999 2.4349999 6.335 11591920
-3.2949998 1.485 6.6950002 15790320
-3.345 1.9050001 6.7049999 15790320
-3.2949998 1.985 6.5950003 15790320
-3.3049998 2.0550001 6.5950003 15790320
-3.2949998 1.995 6.6350002 15790320
-3.0349998 1.6450001 6.9450002 15790320
-2.8150001 1.4250001 7.1550002 15790320
-2.655 2.105 6.7049999 11587824
-2.7649999 2.095 6.9349999 14741744
-2.7849998 2.125 6.9650002 10531008
-2.615 2.0050001 6.8250003 15790320
-2.7049999 2.105 7.0250001 9482432
-2.655 2.155 6.8850002 14741744
-2.665 2.165 6.9549999 13689072
-1.525 -0.32499993 5.4949999 11583664
-1.525 -0.30499995 5.4949999 10535040
-1.525 -0.29499993 5.4949999 11583648
-1.515 -0.30499995 5.5050001 9482352
-1.525 -0.26499993 5.5050001 11583648
-1.515 -0.29499993 5.5149999 10530944
-1.525 -0.27499995 5.5250001 11583648
-1.525 -0.26499993 5.5250001 10530960
-1.515 -0.28499994 5.5549998 10530976
-1.545 -0.21499994 5.5050001 12636368
-1.535 -0.21499994 5.5149999 12636352
-1.515 -0.24499995 5.5149999 10530944
-1.515 -0.23499994 5.5250001 11583648
-1.525 -0.21499994 5.5349998 11583648
-1.515 -0.22499993 5.5549998 10535072
-1.535 -0.20499994 5.5250001 11583664
-1.535 -0.18499994 5.5250001 12636352
-1.535 -0.17499994 5.5250001 12636352
-1.525 -0.20499994 5.5450001 9482352
-1.525 -0.18499994 5.5349998 10530960
-1.525 -0.17499994 5.5450001 11583648
-1.515 -0.20499994 5.5650001 10535056
-1.515 -0.19499993 5.5549998 10535072
-1.515 -0.17499994 5.5650001 10535088
-1.505 -0.29499993 5.5349998 11583648
-1.505 -0.26499993 5.5450001 9482384
-1.4949999 -0.25499994 5.5450001 10530992
-1.505 -0.28499994 5.5650001 10530992
-1.4949999 -0.26499993 5.5549998 10530992
-1.505 -0.24499995 5.5349998 10535040
-1.505 -0.23499994 5.5450001 10535072
-1.4949999 -0.23499994 5.5650001 10530992
-1.505 -0.22499993 5.5650001 10530992
-1.4849999 -0.22499993 5.5750003 10530992
-1.505 -0.19499993 5.5650001 10530992
-1.505 -0.20499994 5.5750003 10530992
-1.505 -0.17499994 5.5750003 10530992
-1.4849999 -0.20499994 5.585 10530992
-1.4849999 -0.17499994 5.5750003 10530992
-1.545 -0.11499994 5.5050001 12636384
-1.535 -0.15499994 5.5349998 11583664
-1.535 -0.14499994 5.5349998 12636352
-1.525 -0.15499994 5.5450001 9482352
-1.515 -0.16499995 5.5650001 10530960
-1.525 -0.14499994 5.5549998 9482368
-1.515 -0.14499994 5.5650001 10535072
-1.545 -0.12499994 5.5149999 13689056
-1.535 -0.12499994 5.5349998 12636368
-1.535 -0.11499994 5.5349998 11583664
-1.535 -0.094999939 5.5349998 12636368
-1.525 -0.12499994 5.5549998 11583664
-1.525 -0.11499994 5.5549998 10530928
-1.515 -0.12499994 5.5650001 10530992
-1.515 -0.11499994 5.5650001 10535056
-1.525 -0.094999939 5.5549998 10530944
-1.515 -0.094999939 5.5650001 11583648
-1.5549999 -0.064999938 5.5349998 13689056
-1.5549999 -0.05499994 5.5349998 13689056
-1.5549999 -0.034999941 5.5349998 13689056
-1.5549999 -0.024999941 5.5450001 13689056
-1.535 -0.084999941 5.5349998 12636368
-1.535 -0.064999938 5.5349998 12636368
-1.535 -0.05499994 5.5450001 12636352
-1.525 -0.084999941 5.5450001 10535056
-1.525 -0.064999938 5.5450001 11583680
-1.525 -0.05499994 5.5450001 11583664
-1.515 -0.084999941 5.5650001 10535072
-1.515 -0.05499994 5.5650001 10530992
-1.515 -0.064999938 5.5750003 10530992
-1.545 -0.034999941 5.5450001 13684944
