# .PCD v0.7 - Point Cloud Data file format
VERSION 0.7
FIELDS x y z rgba
SIZE 4 4 4 4
TYPE F F F U
COUNT 1 1 1 1
WIDTH 1166
HEIGHT 1
VIEWPOINT 0 0 0 1 0 0 0
POINTS 1166
DATA ascii
0.95500004 -0.01499994 1.705 10518624
0.96500003 -0.01499994 1.705 10518640
0.94500005 -0.044999942 1.715 11571312
0.95500004 -0.044999942 1.715 11575424
0.95500004 -0.044999942 1.725 11575424
0.95500004 -0.034999941 1.715 10522736
0.96500003 -0.034999941 1.725 10522736
0.95500004 -0.044999942 1.735 7364688
0.96500003 -0.044999942 1.745 3158032
0.96500003 -0.034999941 1.735 5259296
0.96500003 -0.024999941 1.715 9470048
0.96500003 -0.01499994 1.715 8425584
0.96500003 -0.024999941 1.735 2105360
0.82500005 -0.16499995 1.7850001 3158048
0.82500005 -0.15499994 1.7850001 5259312
0.82500005 -0.14499994 1.7850001 4206624
0.83500004 -0.16499995 1.7850001 3158048
0.83500004 -0.15499994 1.7850001 5259312
0.83500004 -0.14499994 1.7850001 4206624
0.82500005 -0.16499995 1.7950001 3158048
0.84500009 -0.16499995 1.7950001 3158048
0.84500009 -0.15499994 1.7950001 5259312
0.84500009 -0.14499994 1.7950001 3158048
0.84500009 -0.13499995 1.8050001 3153936
0.87500006 -0.16499995 1.7550001 6307888
0.88500005 -0.16499995 1.7750001 6307888
0.85500008 -0.16499995 1.8050001 5263424
0.85500008 -0.16499995 1.8150001 4210720
0.85500008 -0.15499994 1.8150001 3158048
0.85500008 -0.13499995 1.8150001 3153936
0.86500007 -0.14499994 1.825 3153936
0.86500007 -0.13499995 1.835 4206624
0.87500006 -0.16499995 1.845 4210736
0.87500006 -0.14499994 1.845 3153936
0.88500005 -0.13499995 1.865 3153936
0.88500005 -0.16499995 1.875 3158048
0.88500005 -0.13499995 1.8850001 4206624
0.87500006 -0.12499994 1.865 5255200
0.87500006 -0.10499994 1.865 6307888
0.87500006 -0.11499994 1.875 6307872
0.88500005 -0.12499994 1.8850001 5259296
0.88500005 -0.11499994 1.8850001 6307872
0.90500003 -0.15499994 1.7650001 8417360
0.89500004 -0.16499995 1.7750001 5263408
0.90500003 -0.15499994 1.7750001 7368784
0.90500003 -0.14499994 1.7550001 7372896
0.91500008 -0.13499995 1.7550001 6316080
0.91500008 -0.14499994 1.7850001 7377008
0.91500008 -0.13499995 1.7850001 5271616
0.91500008 -0.11499994 1.7550001 6316080
0.92500007 -0.10499994 1.7550001 6311968
0.93500006 -0.12499994 1.7850001 5267504
0.94500005 -0.094999939 1.7750001 6311984
0.92500007 -0.16499995 1.855 5259312
0.89500004 -0.16499995 1.8850001 4206624
0.89500004 -0.15499994 1.8850001 3158048
0.89500004 -0.14499994 1.8850001 3153952
0.89500004 -0.13499995 1.8850001 4206608
0.90500003 -0.14499994 1.8950001 3153936
0.90500003 -0.13499995 1.8950001 4206608
0.90500003 -0.13499995 1.9050001 4202512
0.91500008 -0.14499994 1.9050001 3153952
0.91500008 -0.13499995 1.9050001 3153936
0.89500004 -0.11499994 1.8850001 6307888
0.89500004 -0.12499994 1.8950001 5255200
0.89500004 -0.11499994 1.8950001 6307872
0.90500003 -0.12499994 1.8950001 5255200
0.90500003 -0.12499994 1.9050001 4206608
0.90500003 -0.11499994 1.8950001 5259296
0.89500004 -0.10499994 1.8850001 5259296
0.90500003 -0.10499994 1.8850001 4206608
0.90500003 -0.094999939 1.875 4202512
0.91500008 -0.12499994 1.9050001 4202512
0.91500008 -0.11499994 1.8950001 4206608
0.91500008 -0.11499994 1.9050001 4202512
0.92500007 -0.12499994 1.9050001 3153936
0.92500007 -0.11499994 1.9050001 3153936
0.91500008 -0.10499994 1.8850001 3153920
0.91500008 -0.094999939 1.8850001 4202512
0.91500008 -0.10499994 1.8950001 3153936
0.92500007 -0.10499994 1.8950001 3153936
0.92500007 -0.094999939 1.9050001 4206608
0.93500006 -0.10499994 1.9050001 4206608
0.95500004 -0.05499994 1.7550001 3153920
0.96500003 -0.044999942 1.7550001 2101248
0.92500007 -0.084999941 1.8950001 5259296
0.97500008 -0.05499994 1.6650001 5255184
0.98500007 -0.05499994 1.6650001 5255184
0.99500006 -0.05499994 1.6650001 5255184
1.0050001 -0.05499994 1.6650001 5255184
1.0050001 -0.034999941 1.615 1052672
1.0050001 -0.034999941 1.625 5255184
1.0050001 -0.024999941 1.605 2105360
0.99500006 -0.024999941 1.625 6307872
0.99500006 -0.01499994 1.615 8413248
0.99500006 -0.01499994 1.625 8413248
1.0050001 -0.024999941 1.615 5259296
1.0050001 -0.024999941 1.625 6307872
1.0050001 -0.01499994 1.615 5259296
1.0050001 -0.01499994 1.625 7360560
0.98500007 -0.034999941 1.6450001 5259296
0.97500008 -0.044999942 1.6650001 5259296
0.97500008 -0.034999941 1.6550001 6307872
0.97500008 -0.034999941 1.6650001 6307872
0.98500007 -0.044999942 1.6550001 5255200
0.98500007 -0.044999942 1.6650001 5255200
0.98500007 -0.034999941 1.6550001 5259296
0.97500008 -0.01499994 1.6450001 6311984
0.98500007 -0.024999941 1.6350001 6307872
0.98500007 -0.024999941 1.6450001 6307872
0.98500007 -0.01499994 1.6350001 6307872
0.98500007 -0.01499994 1.6450001 7360560
0.97500008 -0.024999941 1.6550001 6307872
0.97500008 -0.024999941 1.6650001 6311984
0.97500008 -0.01499994 1.6550001 7360560
0.97500008 -0.01499994 1.6650001 8417344
0.98500007 -0.01499994 1.6550001 7360560
0.99500006 -0.044999942 1.6350001 4206608
0.99500006 -0.044999942 1.6450001 5255184
0.99500006 -0.034999941 1.6450001 5259296
1.0050001 -0.044999942 1.6450001 5255184
1.0050001 -0.034999941 1.6350001 5259280
1.0050001 -0.034999941 1.6450001 5255184
0.99500006 -0.044999942 1.6550001 5255184
0.99500006 -0.024999941 1.6350001 6307872
0.99500006 -0.024999941 1.6450001 6307872
0.99500006 -0.01499994 1.6350001 6307872
1.0050001 -0.024999941 1.6350001 6307872
1.0150001 -0.01499994 1.615 2105360
0.97500008 -0.074999943 1.6850001 4206624
0.97500008 -0.084999941 1.6950001 5255200
0.98500007 -0.074999943 1.6950001 6307872
0.98500007 -0.074999943 1.705 5259296
0.97500008 -0.064999938 1.6750001 5255184
0.97500008 -0.064999938 1.6850001 5259296
0.97500008 -0.05499994 1.6750001 5255184
0.98500007 -0.064999938 1.6850001 3153936
0.98500007 -0.05499994 1.6750001 4206608
0.99500006 -0.05499994 1.6750001 4206608
1.0050001 -0.05499994 1.6850001 4206608
0.99500006 -0.064999938 1.6950001 4206608
1.0050001 -0.064999938 1.705 4206608
0.99500006 -0.084999941 1.715 5255200
0.97500008 -0.044999942 1.6750001 6307872
0.97500008 -0.024999941 1.745 0
0.97500008 -0.01499994 1.745 11583664
1.0150001 -0.05499994 1.6950001 4206608
0.92500007 -0.18499994 1.9350001 2105376
0.92500007 -0.17499994 1.9350001 2105376
0.93500006 -0.18499994 1.9450001 4210736
0.93500006 -0.17499994 1.9350001 2105376
0.94500005 -0.17499994 1.9450001 3158048
0.94500005 -0.19499993 1.965 3162160
0.94500005 -0.18499994 1.955 2105376
0.94500005 -0.18499994 1.965 3158048
0.94500005 -0.17499994 1.955 3158048
0.95500004 -0.19499993 1.955 3162160
0.95500004 -0.18499994 1.965 4206640
0.95500004 -0.17499994 1.965 3158048
0.96500003 -0.18499994 1.965 4206640
0.96500003 -0.17499994 1.965 4206624
0.91500008 -0.16499995 1.9150001 3158048
0.91500008 -0.16499995 1.9250001 3158048
0.91500008 -0.15499994 1.9150001 3158064
0.92500007 -0.15499994 1.9250001 3158064
0.92500007 -0.16499995 1.9350001 3158048
0.91500008 -0.14499994 1.9150001 2105360
0.92500007 -0.14499994 1.9250001 3158048
0.92500007 -0.13499995 1.9150001 3153936
0.92500007 -0.13499995 1.9250001 3153936
0.92500007 -0.12499994 1.9150001 3153936
0.93500006 -0.16499995 1.9350001 3158048
0.93500006 -0.15499994 1.9350001 3158064
0.94500005 -0.16499995 1.9350001 3158048
0.94500005 -0.16499995 1.9450001 3158048
0.94500005 -0.15499994 1.9350001 3158048
0.93500006 -0.13499995 1.9250001 3153936
0.93500006 -0.14499994 1.9350001 3158048
0.94500005 -0.14499994 1.9350001 4206624
0.94500005 -0.13499995 1.9350001 4206624
0.95500004 -0.16499995 1.9450001 4206640
0.95500004 -0.15499994 1.9450001 5259312
0.95500004 -0.14499994 1.9350001 5259312
0.95500004 -0.13499995 1.9350001 5259296
0.96500003 -0.14499994 1.9450001 6311984
0.96500003 -0.13499995 1.9450001 5259296
0.95500004 -0.16499995 1.955 3158048
0.95500004 -0.15499994 1.955 4206640
0.96500003 -0.16499995 1.955 4210736
0.96500003 -0.16499995 1.965 4210736
0.96500003 -0.15499994 1.955 6316112
0.93500006 -0.12499994 1.9150001 3153936
0.93500006 -0.11499994 1.9150001 4202512
0.93500006 -0.11499994 1.9250001 4202512
0.94500005 -0.12499994 1.9250001 4206608
0.94500005 -0.12499994 1.9350001 5255200
0.93500006 -0.10499994 1.9150001 4206608
0.94500005 -0.094999939 1.9150001 6307872
0.94500005 -0.094999939 1.9250001 5259296
0.94500005 -0.10499994 1.9350001 5255200
0.95500004 -0.12499994 1.9350001 5259296
0.95500004 -0.11499994 1.9350001 5255184
0.96500003 -0.12499994 1.9350001 5259296
0.96500003 -0.11499994 1.9350001 6307872
0.96500003 -0.11499994 1.9450001 5259296
0.95500004 -0.10499994 1.9350001 5255200
0.95500004 -0.094999939 1.9450001 6307872
0.96500003 -0.10499994 1.9450001 5259296
0.96500003 -0.094999939 1.9450001 5259296
0.96500003 -0.10499994 1.955 6307872
0.94500005 -0.084999941 1.9150001 6307872
0.94500005 -0.074999943 1.9150001 6311984
0.94500005 -0.074999943 1.9250001 7360560
0.94500005 -0.064999938 1.9250001 8413248
0.95500004 -0.084999941 1.9350001 6307888
0.95500004 -0.074999943 1.9350001 7360560
0.96500003 -0.074999943 1.9450001 7360560
0.95500004 -0.064999938 1.9350001 8413248
0.96500003 -0.064999938 1.9450001 8409136
0.96500003 -0.05499994 1.9450001 8413248
0.96500003 -0.084999941 1.955 6307888
0.97500008 -0.17499994 1.965 5259312
0.99500006 -0.15499994 1.9450001 6324336
1.0050001 -0.13499995 1.9450001 5259312
0.97500008 -0.16499995 1.965 4210736
0.97500008 -0.15499994 1.965 6312000
0.98500007 -0.16499995 1.955 7364704
0.98500007 -0.16499995 1.965 6316112
0.97500008 -0.16499995 1.975 4210736
0.98500007 -0.16499995 1.975 6312016
0.98500007 -0.15499994 1.975 6316112
0.97500008 -0.14499994 1.955 5259312
0.97500008 -0.14499994 1.965 5263424
0.97500008 -0.13499995 1.955 6307872
0.98500007 -0.14499994 1.965 5259312
0.98500007 -0.13499995 1.965 5259312
0.98500007 -0.14499994 1.975 5263424
0.99500006 -0.15499994 1.955 5263440
0.99500006 -0.15499994 1.965 5267536
0.99500006 -0.15499994 1.975 6316112
0.99500006 -0.14499994 1.965 7368816
1.0050001 -0.14499994 1.955 6320224
1.0050001 -0.14499994 1.965 7368800
1.0050001 -0.13499995 1.955 6311984
1.0050001 -0.13499995 1.965 6312000
0.99500006 -0.14499994 1.975 5263424
0.99500006 -0.13499995 1.975 6312000
1.0050001 -0.13499995 1.975 7364688
0.97500008 -0.12499994 1.9450001 6307872
0.97500008 -0.11499994 1.9350001 6307872
0.97500008 -0.11499994 1.9450001 6307872
0.97500008 -0.10499994 1.9350001 6307872
0.97500008 -0.10499994 1.9450001 6307872
0.97500008 -0.094999939 1.9450001 6307872
0.98500007 -0.10499994 1.9450001 6307872
0.98500007 -0.094999939 1.9350001 6307872
0.98500007 -0.094999939 1.9450001 6307872
1.0050001 -0.12499994 1.9450001 5259296
0.98500007 -0.12499994 1.955 6307872
0.98500007 -0.11499994 1.955 6307872
0.97500008 -0.094999939 1.955 6307872
0.99500006 -0.12499994 1.965 6307872
0.99500006 -0.11499994 1.965 6307872
1.0050001 -0.12499994 1.965 6307872
1.0050001 -0.12499994 1.975 6307872
1.0050001 -0.11499994 1.975 6307872
0.99500006 -0.10499994 1.955 6307872
0.99500006 -0.10499994 1.965 6307872
0.99500006 -0.094999939 1.955 6307872
1.0050001 -0.10499994 1.965 6307872
1.0050001 -0.094999939 1.955 6307872
1.0050001 -0.094999939 1.965 6307872
1.0150001 -0.11499994 1.9450001 6307872
1.0250001 -0.10499994 1.9450001 6307872
1.0250001 -0.094999939 1.9450001 6307872
1.0150001 -0.12499994 1.955 6307872
1.0150001 -0.12499994 1.965 6307872
1.0150001 -0.11499994 1.965 6307872
1.0250001 -0.11499994 1.955 6307872
1.0150001 -0.11499994 1.975 6307872
1.0150001 -0.094999939 1.965 6307872
1.0250001 -0.10499994 1.955 6307872
1.0250001 -0.10499994 1.965 6307872
1.0250001 -0.094999939 1.955 6307872
1.0250001 -0.094999939 1.965 6307872
1.0150001 -0.10499994 1.975 6307872
1.0150001 -0.094999939 1.975 6307872
1.0350001 -0.094999939 1.955 6303776
0.98500007 -0.084999941 1.9350001 6307872
0.98500007 -0.084999941 1.9450001 6307888
0.98500007 -0.074999943 1.9450001 7360560
0.99500006 -0.084999941 1.9450001 6307872
0.99500006 -0.074999943 1.9450001 7360560
1.0050001 -0.074999943 1.9450001 7360560
0.99500006 -0.064999938 1.9450001 7360560
0.99500006 -0.05499994 1.9450001 7360560
1.0050001 -0.064999938 1.9450001 7360560
1.0050001 -0.05499994 1.9450001 8409152
0.97500008 -0.084999941 1.955 6307888
0.98500007 -0.084999941 1.955 6307888
0.98500007 -0.084999941 1.965 6307888
0.98500007 -0.074999943 1.955 7360560
0.98500007 -0.074999943 1.965 7360560
0.98500007 -0.064999938 1.965 7360560
0.98500007 -0.05499994 1.965 8413248
0.99500006 -0.074999943 1.955 7360560
1.0050001 -0.084999941 1.955 7356448
1.0050001 -0.074999943 1.955 7360560
0.99500006 -0.064999938 1.955 7360560
0.99500006 -0.064999938 1.965 7360576
0.99500006 -0.05499994 1.955 8413248
0.99500006 -0.064999938 1.975 8409152
0.99500006 -0.05499994 1.975 8413248
1.0050001 -0.044999942 1.9450001 8413248
0.98500007 -0.044999942 1.965 9465936
0.97500008 -0.024999941 1.955 10518624
0.97500008 -0.01499994 1.955 11571312
0.98500007 -0.024999941 1.965 10518624
0.98500007 -0.01499994 1.965 11571312
0.99500006 -0.044999942 1.955 8413248
0.99500006 -0.044999942 1.965 8413248
0.99500006 -0.034999941 1.955 9461840
1.0050001 -0.044999942 1.955 8413248
1.0050001 -0.034999941 1.955 8413248
1.0050001 -0.034999941 1.965 9465936
0.99500006 -0.044999942 1.975 9461824
0.99500006 -0.034999941 1.975 9465936
1.0050001 -0.024999941 1.955 9465936
1.0050001 -0.024999941 1.965 9465936
1.0050001 -0.01499994 1.965 10518624
0.99500006 -0.024999941 1.975 10518624
0.99500006 -0.01499994 1.975 11571312
1.0050001 -0.024999941 1.975 9465936
1.0050001 -0.01499994 1.975 10518624
1.0050001 -0.01499994 1.985 11567216
1.0150001 -0.05499994 1.9450001 8413248
1.0350001 -0.084999941 1.9450001 6307872
1.0150001 -0.084999941 1.965 6307872
1.0150001 -0.074999943 1.965 7356464
1.0250001 -0.084999941 1.965 6307872
1.0250001 -0.084999941 1.975 6307872
1.0250001 -0.074999943 1.975 7356464
1.0150001 -0.064999938 1.955 7360560
1.0150001 -0.064999938 1.965 7360560
1.0150001 -0.05499994 1.955 7360560
1.0250001 -0.064999938 1.965 7360560
1.0250001 -0.05499994 1.955 8413248
1.0250001 -0.05499994 1.965 7360560
1.0250001 -0.064999938 1.975 7360560
1.0350001 -0.084999941 1.955 6307872
1.0350001 -0.084999941 1.965 6307872
1.0350001 -0.074999943 1.965 7356448
1.0450001 -0.074999943 1.965 7356448
1.0350001 -0.084999941 1.975 6307872
1.0350001 -0.074999943 1.975 6307872
1.0350001 -0.064999938 1.965 7356464
1.0350001 -0.05499994 1.965 7360576
1.0450001 -0.064999938 1.965 7360560
1.0350001 -0.064999938 1.975 7360560
1.0450001 -0.064999938 1.975 7360560
1.0450001 -0.05499994 1.975 7360560
1.0150001 -0.044999942 1.955 8413248
1.0150001 -0.034999941 1.955 8413248
1.0250001 -0.044999942 1.955 8409152
1.0250001 -0.044999942 1.965 8409152
1.0250001 -0.034999941 1.955 8413248
1.0150001 -0.024999941 1.955 9465936
1.0150001 -0.01499994 1.955 10514528
1.0250001 -0.024999941 1.955 8413248
1.0250001 -0.01499994 1.955 9465936
1.0250001 -0.01499994 1.965 9465936
1.0350001 -0.044999942 1.965 7360560
1.0350001 -0.034999941 1.965 8409152
1.0450001 -0.034999941 1.965 8409152
1.0350001 -0.044999942 1.975 8409152
1.0450001 -0.044999942 1.975 7360560
1.0350001 -0.024999941 1.965 9461824
1.0350001 -0.01499994 1.965 9465936
1.0450001 -0.024999941 1.965 8413248
1.0450001 -0.01499994 1.965 10514512
1.0450001 -0.024999941 1.975 8409152
1.0550001 -0.064999938 1.975 7360560
1.0550001 -0.05499994 1.975 8409152
1.0650001 -0.05499994 1.985 8409152
1.075 -0.01499994 1.9450001 1052672
1.085 -0.01499994 1.9450001 1052672
1.0550001 -0.044999942 1.975 7360560
1.0550001 -0.034999941 1.975 7360560
1.0650001 -0.044999942 1.985 6307872
1.0650001 -0.034999941 1.985 7356464
1.0550001 -0.024999941 1.965 8413248
1.0550001 -0.01499994 1.965 10514512
1.0650001 -0.01499994 1.965 10514528
1.0550001 -0.01499994 1.975 11567216
1.0650001 -0.024999941 1.975 8413248
1.0650001 -0.01499994 1.975 11567216
1.075 -0.034999941 1.985 7360560
1.085 -0.044999942 1.975 5255200
1.085 -0.044999942 1.985 4206608
1.085 -0.034999941 1.985 6307888
1.085 -0.024999941 1.965 5259312
1.075 -0.024999941 1.985 8413248
1.075 -0.01499994 1.975 7360560
1.075 -0.01499994 1.985 10518624
1.085 -0.024999941 1.975 3153936
1.085 -0.024999941 1.985 8413264
1.085 -0.01499994 1.975 2101248
1.085 -0.01499994 1.985 5255200
1.095 -0.01499994 1.975 2101248
1.0650001 -0.064999938 1.995 7360560
1.075 -0.064999938 2.0050001 7360560
1.075 -0.05499994 1.995 8409152
1.085 -0.05499994 1.995 5255200
1.075 -0.044999942 1.995 6307872
1.075 -0.034999941 1.995 7356464
1.085 -0.044999942 1.995 5255200
1.085 -0.034999941 1.995 7356464
1.1350001 -0.094999939 1.955 5255200
1.1450001 -0.10499994 1.965 4206624
1.1450001 -0.094999939 1.965 4206608
1.1650001 -0.11499994 1.975 3158032
1.1550001 -0.10499994 1.965 3158032
1.1550001 -0.094999939 1.965 4206608
1.1650001 -0.094999939 1.965 5259296
1.1650001 -0.10499994 1.975 4206608
1.1650001 -0.094999939 1.975 4206608
1.1950001 -0.10499994 1.9450001 7364656
1.1950001 -0.094999939 1.9450001 8417344
1.205 -0.10499994 1.9350001 8417344
1.205 -0.10499994 1.9450001 7364656
1.205 -0.094999939 1.9350001 9465920
1.205 -0.094999939 1.9450001 9465920
1.1750001 -0.12499994 1.955 3158032
1.1750001 -0.11499994 1.965 4206608
1.1850001 -0.12499994 1.955 2101248
1.1850001 -0.11499994 1.955 4206608
1.1850001 -0.11499994 1.965 4206624
1.1750001 -0.10499994 1.965 4206624
1.1750001 -0.094999939 1.965 5259296
1.1850001 -0.10499994 1.965 5259296
1.1850001 -0.094999939 1.955 7364672
1.1850001 -0.094999939 1.965 7360560
1.1750001 -0.10499994 1.975 4206608
1.1950001 -0.12499994 1.955 4206608
1.1950001 -0.11499994 1.955 5259296
1.1950001 -0.11499994 1.965 5259296
1.1950001 -0.10499994 1.955 7360560
1.1950001 -0.094999939 1.955 8417344
1.205 -0.10499994 1.955 7360560
1.205 -0.094999939 1.955 9465936
1.1450001 -0.074999943 1.9250001 4206608
1.1450001 -0.084999941 1.9450001 4206608
1.1550001 -0.074999943 1.9350001 4206608
1.1650001 -0.074999943 1.9350001 4206608
1.1650001 -0.074999943 1.9450001 6311984
1.1450001 -0.084999941 1.955 5255184
1.1550001 -0.084999941 1.955 6307872
1.1550001 -0.084999941 1.965 5259296
1.1650001 -0.084999941 1.955 8417360
1.1650001 -0.084999941 1.965 6311984
1.1750001 -0.074999943 1.9450001 9470048
1.1950001 -0.084999941 1.9450001 9470032
1.1750001 -0.084999941 1.955 8417360
1.1750001 -0.084999941 1.965 7364672
1.1850001 -0.084999941 1.955 9465936
1.1850001 -0.084999941 1.965 9465936
1.1850001 -0.074999943 1.955 9470048
1.1950001 -0.084999941 1.955 9470032
1.1950001 -0.074999943 1.955 10522720
0.14500006 -0.0049999403 0.78500009 10514528
0.14500006 0.0050000595 0.78500009 10514544
0.15500006 -0.0049999403 0.78500009 10514528
0.15500006 0.0050000595 0.78500009 10514528
0.16500007 -0.0049999403 0.78500009 9465952
0.16500007 0.0050000595 0.78500009 10514528
0.15500006 0.015000059 0.78500009 10514528
0.15500006 0.02500006 0.78500009 10514528
0.16500007 0.015000059 0.78500009 9465952
0.16500007 0.02500006 0.78500009 10514528
0.015000059 -0.0049999403 0.90500003 13684960
0.015000059 0.0050000595 0.90500003 12632256
0.02500006 -0.0049999403 0.90500003 12636368
0.02500006 0.0050000595 0.90500003 11583680
0.015000059 0.015000059 0.90500003 11583664
0.015000059 0.02500006 0.90500003 14737632
0.02500006 0.015000059 0.90500003 11579568
0.02500006 0.02500006 0.90500003 13689056
0.03500006 -0.0049999403 0.89500004 11579568
0.03500006 -0.0049999403 0.90500003 13684944
0.03500006 0.0050000595 0.89500004 12636352
0.03500006 0.0050000595 0.90500003 12632256
0.045000061 -0.0049999403 0.89500004 10530976
0.045000061 0.0050000595 0.89500004 12632256
0.03500006 0.015000059 0.89500004 10526880
0.03500006 0.015000059 0.90500003 10526880
0.03500006 0.02500006 0.89500004 14737632
0.03500006 0.02500006 0.90500003 13684944
0.045000061 0.015000059 0.89500004 9478288
0.045000061 0.02500006 0.89500004 13684944
0.015000059 -0.0049999403 0.91500008 13689056
0.015000059 0.0050000595 0.91500008 10530992
0.015000059 0.015000059 0.91500008 13684944
0.015000059 0.02500006 0.91500008 13684944
0.015000059 0.03500006 0.90500003 13684944
0.02500006 0.03500006 0.90500003 12636368
0.02500006 0.045000061 0.90500003 13684944
0.02500006 0.055000059 0.90500003 13684944
0.02500006 0.065000057 0.90500003 13684960
0.045000061 0.03500006 0.88500005 12632256
0.03500006 0.03500006 0.89500004 12632256
0.03500006 0.03500006 0.90500003 12632256
0.03500006 0.045000061 0.89500004 12636368
0.03500006 0.045000061 0.90500003 12636368
0.045000061 0.03500006 0.89500004 11583680
0.045000061 0.045000061 0.89500004 12632256
0.045000061 0.055000059 0.88500005 12632256
0.03500006 0.055000059 0.89500004 12636368
0.03500006 0.055000059 0.90500003 12636368
0.03500006 0.065000057 0.89500004 12636368
0.03500006 0.065000057 0.90500003 13684944
0.045000061 0.055000059 0.89500004 12632256
0.045000061 0.065000057 0.89500004 12632272
0.015000059 0.03500006 0.91500008 13684944
0.015000059 0.03500006 0.92500007 13689056
0.015000059 0.045000061 0.91500008 13689056
0.015000059 0.045000061 0.92500007 13689056
0.015000059 0.055000059 0.91500008 13689056
0.015000059 0.055000059 0.92500007 14737632
0.015000059 0.065000057 0.91500008 13689056
0.015000059 0.065000057 0.92500007 14737632
0.02500006 0.065000057 0.91500008 13689056
0.065000057 -0.0049999403 0.88500005 10526880
0.065000057 0.0050000595 0.88500005 12632256
0.055000059 -0.0049999403 0.89500004 10526880
0.055000059 0.0050000595 0.89500004 12632256
0.065000057 -0.0049999403 0.89500004 9474192
0.065000057 0.0050000595 0.89500004 12632256
0.055000059 0.015000059 0.88500005 9474192
0.065000057 0.015000059 0.88500005 9474192
0.065000057 0.02500006 0.88500005 11583680
0.055000059 0.015000059 0.89500004 9474192
0.055000059 0.02500006 0.89500004 12636352
0.065000057 0.015000059 0.89500004 9474192
0.065000057 0.02500006 0.89500004 12632256
0.075000063 -0.0049999403 0.88500005 9474192
0.075000063 0.0050000595 0.88500005 12632256
0.08500006 -0.0049999403 0.88500005 8425600
0.08500006 0.0050000595 0.88500005 11579568
0.075000063 -0.0049999403 0.89500004 9474192
0.08500006 -0.0049999403 0.89500004 9474192
0.075000063 0.015000059 0.88500005 9474192
0.075000063 0.02500006 0.88500005 11579568
0.08500006 0.015000059 0.88500005 9478288
0.08500006 0.02500006 0.88500005 11579568
0.075000063 0.02500006 0.89500004 12632256
0.055000059 0.03500006 0.88500005 11579568
0.055000059 0.045000061 0.88500005 11583680
0.065000057 0.03500006 0.88500005 10530992
0.065000057 0.045000061 0.88500005 11579568
0.055000059 0.03500006 0.89500004 11579568
0.055000059 0.045000061 0.89500004 11583680
0.065000057 0.03500006 0.89500004 11579568
0.065000057 0.045000061 0.89500004 11579568
0.055000059 0.055000059 0.88500005 12632256
0.055000059 0.065000057 0.88500005 12632256
0.065000057 0.055000059 0.88500005 11579568
0.065000057 0.065000057 0.88500005 11583680
0.075000063 0.03500006 0.88500005 10526880
0.075000063 0.045000061 0.88500005 10530976
0.08500006 0.03500006 0.88500005 10526880
0.08500006 0.045000061 0.88500005 10526880
0.075000063 0.055000059 0.87500006 10530992
0.075000063 0.055000059 0.88500005 11579568
0.075000063 0.065000057 0.87500006 11579568
0.075000063 0.065000057 0.88500005 11579568
0.08500006 0.055000059 0.87500006 10530976
0.08500006 0.055000059 0.88500005 10526880
0.08500006 0.065000057 0.87500006 10530976
0.08500006 0.065000057 0.88500005 10530976
0.015000059 0.13500006 0.86500007 8425600
0.015000059 0.14500006 0.86500007 8425600
0.08500006 0.075000063 0.84500009 10530976
0.08500006 0.08500006 0.83500004 10526880
0.08500006 0.08500006 0.84500009 10526880
0.08500006 0.075000063 0.85500008 12632256
0.08500006 0.075000063 0.86500007 12632256
0.08500006 0.08500006 0.85500008 10530976
0.08500006 0.08500006 0.86500007 11579568
0.08500006 0.095000058 0.83500004 10530992
0.08500006 0.095000058 0.84500009 10530992
0.08500006 0.10500006 0.83500004 11579584
0.08500006 0.10500006 0.84500009 11579568
0.075000063 0.095000058 0.85500008 11583664
0.075000063 0.095000058 0.86500007 11583680
0.075000063 0.10500006 0.85500008 11583680
0.075000063 0.10500006 0.86500007 11579568
0.08500006 0.095000058 0.85500008 11583680
0.08500006 0.095000058 0.86500007 11579568
0.08500006 0.10500006 0.85500008 11579568
0.065000057 0.12500006 0.86500007 12632256
0.065000057 0.13500006 0.86500007 13689056
0.065000057 0.14500006 0.86500007 14737632
0.08500006 0.11500006 0.83500004 11583680
0.08500006 0.11500006 0.84500009 12632256
0.08500006 0.12500006 0.83500004 11583680
0.08500006 0.12500006 0.84500009 12632256
0.075000063 0.11500006 0.85500008 11583680
0.075000063 0.11500006 0.86500007 12632256
0.075000063 0.12500006 0.85500008 12632256
0.075000063 0.12500006 0.86500007 11583680
0.08500006 0.11500006 0.85500008 11583680
0.08500006 0.12500006 0.85500008 12636368
0.08500006 0.13500006 0.84500009 13684944
0.08500006 0.14500006 0.84500009 13684944
0.075000063 0.13500006 0.85500008 13684944
0.075000063 0.13500006 0.86500007 13689056
0.075000063 0.14500006 0.85500008 13684944
0.075000063 0.14500006 0.86500007 13689056
0.08500006 0.13500006 0.85500008 13684944
0.08500006 0.14500006 0.85500008 13684944
0.02500006 0.075000063 0.90500003 12636368
0.02500006 0.08500006 0.90500003 14737632
0.02500006 0.095000058 0.90500003 14737632
0.02500006 0.10500006 0.90500003 14737632
0.045000061 0.08500006 0.88500005 13684944
0.03500006 0.075000063 0.89500004 12636368
0.03500006 0.075000063 0.90500003 12636368
0.03500006 0.08500006 0.89500004 13689056
0.03500006 0.08500006 0.90500003 14737632
0.045000061 0.075000063 0.89500004 12632256
0.045000061 0.08500006 0.89500004 13684944
0.045000061 0.095000058 0.88500005 13684944
0.045000061 0.10500006 0.88500005 13684944
0.03500006 0.095000058 0.89500004 13689056
0.03500006 0.095000058 0.90500003 14737632
0.03500006 0.10500006 0.89500004 13689056
0.03500006 0.10500006 0.90500003 14737632
0.045000061 0.095000058 0.89500004 13689040
0.045000061 0.10500006 0.89500004 13689056
0.015000059 0.075000063 0.91500008 13684960
0.015000059 0.075000063 0.92500007 14737632
0.015000059 0.08500006 0.91500008 14741744
0.015000059 0.08500006 0.92500007 15790320
0.02500006 0.075000063 0.91500008 13689056
0.02500006 0.08500006 0.91500008 14737632
0.015000059 0.095000058 0.91500008 14741744
0.015000059 0.095000058 0.92500007 14741744
0.015000059 0.10500006 0.92500007 15790320
0.02500006 0.095000058 0.91500008 14737632
0.02500006 0.10500006 0.91500008 14741744
0.02500006 0.10500006 0.92500007 15790320
0.015000059 0.095000058 0.93500006 15790320
0.015000059 0.10500006 0.93500006 15790320
0.015000059 0.12500006 0.89500004 9474192
0.02500006 0.11500006 0.90500003 13689056
0.015000059 0.13500006 0.88500005 9478288
0.015000059 0.14500006 0.88500005 8425600
0.015000059 0.13500006 0.89500004 9474192
0.015000059 0.14500006 0.89500004 8425616
0.015000059 0.14500006 0.90500003 9474192
0.02500006 0.14500006 0.89500004 8425600
0.045000061 0.11500006 0.88500005 13684944
0.045000061 0.12500006 0.88500005 14737632
0.03500006 0.11500006 0.89500004 12636368
0.03500006 0.11500006 0.90500003 13689056
0.03500006 0.12500006 0.90500003 15790320
0.045000061 0.11500006 0.89500004 13684944
0.045000061 0.12500006 0.89500004 14741744
0.045000061 0.12500006 0.90500003 14737648
0.045000061 0.13500006 0.88500005 14741744
0.045000061 0.14500006 0.88500005 14737648
0.03500006 0.13500006 0.90500003 15790320
0.03500006 0.14500006 0.90500003 15790320
0.045000061 0.13500006 0.89500004 14741744
0.045000061 0.14500006 0.89500004 14741744
0.045000061 0.14500006 0.90500003 15790320
0.015000059 0.11500006 0.92500007 15790320
0.015000059 0.12500006 0.91500008 2105376
0.015000059 0.12500006 0.92500007 2109472
0.02500006 0.11500006 0.91500008 15790320
0.02500006 0.11500006 0.92500007 15790320
0.02500006 0.12500006 0.91500008 15790320
0.02500006 0.12500006 0.92500007 15790320
0.015000059 0.11500006 0.93500006 12632256
0.015000059 0.12500006 0.93500006 7372912
0.015000059 0.13500006 0.91500008 9478288
0.015000059 0.13500006 0.92500007 9478288
0.015000059 0.14500006 0.91500008 9474192
0.02500006 0.13500006 0.91500008 15790320
0.02500006 0.13500006 0.92500007 13684944
0.02500006 0.14500006 0.91500008 8425600
0.02500006 0.14500006 0.92500007 9478288
0.015000059 0.13500006 0.93500006 10526880
0.02500006 0.13500006 0.93500006 10530976
0.03500006 0.11500006 0.91500008 15790320
0.03500006 0.12500006 0.91500008 15790320
0.03500006 0.13500006 0.91500008 15790320
0.03500006 0.14500006 0.91500008 14737632
0.055000059 0.075000063 0.88500005 11583680
0.055000059 0.08500006 0.88500005 12636368
0.065000057 0.075000063 0.87500006 9478288
0.065000057 0.075000063 0.88500005 11579568
0.065000057 0.08500006 0.87500006 12632256
0.065000057 0.08500006 0.88500005 12632256
0.055000059 0.095000058 0.88500005 12636368
0.055000059 0.10500006 0.88500005 13684944
0.065000057 0.095000058 0.87500006 12632256
0.065000057 0.095000058 0.88500005 12632256
0.065000057 0.10500006 0.87500006 12632256
0.065000057 0.10500006 0.88500005 12632256
0.075000063 0.075000063 0.87500006 11579568
0.075000063 0.075000063 0.88500005 10526880
0.075000063 0.08500006 0.87500006 11583680
0.08500006 0.075000063 0.87500006 10526880
0.08500006 0.08500006 0.87500006 11579568
0.075000063 0.095000058 0.87500006 11583680
0.075000063 0.10500006 0.87500006 11583680
0.055000059 0.11500006 0.87500006 14737632
0.055000059 0.11500006 0.88500005 13684944
0.055000059 0.12500006 0.87500006 13689056
0.055000059 0.12500006 0.88500005 14737632
0.065000057 0.11500006 0.87500006 13684944
0.065000057 0.11500006 0.88500005 11583680
0.065000057 0.12500006 0.87500006 13684944
0.065000057 0.12500006 0.88500005 13689056
0.055000059 0.13500006 0.87500006 13684960
0.055000059 0.13500006 0.88500005 14737632
0.055000059 0.14500006 0.87500006 14737632
0.055000059 0.14500006 0.88500005 14737632
0.065000057 0.13500006 0.87500006 13689056
0.065000057 0.14500006 0.87500006 14741744
0.065000057 0.14500006 0.88500005 15790320
0.12500006 0.0050000595 0.80500007 7368800
0.12500006 -0.0049999403 0.81500006 7368816
0.12500006 -0.0049999403 0.82500005 7368816
0.12500006 0.0050000595 0.81500006 7364704
0.12500006 0.0050000595 0.82500005 7368800
0.12500006 0.015000059 0.80500007 8417392
0.12500006 0.02500006 0.80500007 9465968
0.11500006 0.015000059 0.82500005 8421504
0.11500006 0.02500006 0.82500005 7368800
0.12500006 0.015000059 0.81500006 8421488
0.12500006 0.015000059 0.82500005 9470080
0.12500006 0.02500006 0.81500006 7368800
0.12500006 0.02500006 0.82500005 7368800
0.12500006 -0.0049999403 0.83500004 7368816
0.12500006 -0.0049999403 0.84500009 8417392
0.12500006 0.0050000595 0.83500004 7368800
0.12500006 0.0050000595 0.84500009 7364704
0.12500006 -0.0049999403 0.85500008 8417392
0.12500006 -0.0049999403 0.86500007 8421488
0.12500006 0.0050000595 0.85500008 7368816
0.12500006 0.0050000595 0.86500007 7368816
0.11500006 0.015000059 0.83500004 8421504
0.11500006 0.015000059 0.84500009 9474192
0.11500006 0.02500006 0.83500004 7368816
0.11500006 0.02500006 0.84500009 8421488
0.12500006 0.015000059 0.83500004 9474176
0.12500006 0.015000059 0.84500009 9474192
0.11500006 0.015000059 0.85500008 10526864
0.11500006 0.015000059 0.86500007 10526880
0.11500006 0.02500006 0.85500008 9474176
0.11500006 0.02500006 0.86500007 9474192
0.12500006 0.015000059 0.85500008 8421504
0.11500006 0.03500006 0.82500005 8417392
0.11500006 0.045000061 0.82500005 7368800
0.12500006 0.03500006 0.81500006 8417376
0.12500006 0.03500006 0.82500005 7368800
0.12500006 0.045000061 0.81500006 8417376
0.11500006 0.055000059 0.82500005 7364704
0.11500006 0.065000057 0.82500005 7364688
0.12500006 0.055000059 0.81500006 8417376
0.12500006 0.055000059 0.82500005 7364688
0.12500006 0.065000057 0.81500006 7364688
0.12500006 0.065000057 0.82500005 7364688
0.10500006 0.055000059 0.86500007 9474192
0.10500006 0.065000057 0.85500008 11579568
0.10500006 0.065000057 0.86500007 11579568
0.11500006 0.03500006 0.83500004 8421488
0.11500006 0.03500006 0.84500009 8421488
0.11500006 0.045000061 0.83500004 8417392
0.11500006 0.045000061 0.84500009 8421504
0.11500006 0.03500006 0.85500008 8421504
0.11500006 0.03500006 0.86500007 8421504
0.11500006 0.045000061 0.85500008 8421504
0.11500006 0.045000061 0.86500007 9474176
0.11500006 0.055000059 0.83500004 7368800
0.11500006 0.055000059 0.84500009 7368816
0.11500006 0.065000057 0.83500004 7368800
0.11500006 0.065000057 0.84500009 8421488
0.11500006 0.055000059 0.85500008 8421504
0.11500006 0.055000059 0.86500007 9474176
0.11500006 0.065000057 0.85500008 9474176
0.13500006 -0.0049999403 0.79500008 9470064
0.13500006 -0.0049999403 0.80500007 8417392
0.13500006 0.0050000595 0.79500008 10518640
0.13500006 0.0050000595 0.80500007 9465968
0.14500006 -0.0049999403 0.79500008 10518640
0.14500006 0.0050000595 0.79500008 10518640
0.13500006 -0.0049999403 0.81500006 8417392
0.13500006 0.015000059 0.80500007 9470064
0.13500006 0.02500006 0.80500007 10518640
0.14500006 0.015000059 0.79500008 10518640
0.14500006 0.015000059 0.80500007 10518640
0.14500006 0.02500006 0.79500008 10518640
0.14500006 0.02500006 0.80500007 10518640
0.13500006 0.02500006 0.81500006 9470064
0.15500006 0.0050000595 0.79500008 10514528
0.15500006 0.015000059 0.79500008 10514528
0.15500006 0.02500006 0.79500008 10514528
0.16500007 0.02500006 0.79500008 10514528
0.13500006 0.03500006 0.80500007 10522736
0.13500006 0.045000061 0.80500007 10518640
0.14500006 0.03500006 0.79500008 10518640
0.14500006 0.03500006 0.80500007 10518640
0.14500006 0.045000061 0.79500008 10518640
0.14500006 0.045000061 0.80500007 10518640
0.13500006 0.03500006 0.81500006 9470080
0.13500006 0.045000061 0.81500006 10518640
0.13500006 0.055000059 0.80500007 10518640
0.14500006 0.055000059 0.80500007 10518640
0.14500006 0.065000057 0.80500007 10518640
0.13500006 0.055000059 0.81500006 9465968
0.13500006 0.065000057 0.81500006 8413264
0.14500006 0.055000059 0.81500006 10518640
0.14500006 0.065000057 0.81500006 9465952
0.15500006 0.03500006 0.79500008 10518640
0.15500006 0.045000061 0.79500008 10518640
0.15500006 0.045000061 0.80500007 10518640
0.16500007 0.03500006 0.79500008 10514528
0.16500007 0.045000061 0.79500008 10518624
0.16500007 0.045000061 0.80500007 10518640
0.15500006 0.055000059 0.80500007 10518640
0.15500006 0.065000057 0.80500007 10518640
0.16500007 0.055000059 0.80500007 10518640
0.16500007 0.065000057 0.80500007 10518640
0.15500006 0.065000057 0.81500006 10518640
0.16500007 0.065000057 0.81500006 10518640
0.095000058 -0.0049999403 0.88500005 8421504
0.095000058 0.0050000595 0.87500006 11583664
0.095000058 0.0050000595 0.88500005 10526880
0.10500006 -0.0049999403 0.88500005 8425600
0.10500006 0.0050000595 0.87500006 12636352
0.10500006 0.0050000595 0.88500005 9478288
0.095000058 0.015000059 0.88500005 10526880
0.095000058 0.02500006 0.88500005 11579568
0.10500006 0.015000059 0.88500005 10530976
0.10500006 0.02500006 0.87500006 8421504
0.10500006 0.02500006 0.88500005 11579568
0.11500006 -0.0049999403 0.87500006 8421488
0.11500006 -0.0049999403 0.88500005 8421504
0.11500006 0.0050000595 0.87500006 9474192
0.11500006 0.0050000595 0.88500005 8421504
0.12500006 -0.0049999403 0.87500006 8421504
0.12500006 -0.0049999403 0.88500005 8421504
0.12500006 0.0050000595 0.87500006 7368816
0.12500006 0.0050000595 0.88500005 7368816
0.11500006 0.015000059 0.87500006 11579568
0.11500006 0.015000059 0.88500005 11579568
0.11500006 0.02500006 0.87500006 9474176
0.11500006 0.02500006 0.88500005 11579568
0.095000058 0.03500006 0.88500005 10526864
0.095000058 0.045000061 0.87500006 10526880
0.095000058 0.045000061 0.88500005 9478304
0.10500006 0.03500006 0.87500006 9474192
0.10500006 0.03500006 0.88500005 9474192
0.10500006 0.045000061 0.87500006 9474192
0.10500006 0.045000061 0.88500005 9478288
0.095000058 0.055000059 0.87500006 10526880
0.095000058 0.065000057 0.87500006 10526880
0.095000058 0.065000057 0.88500005 10526880
0.10500006 0.055000059 0.87500006 9478288
0.10500006 0.065000057 0.87500006 10526880
0.10500006 0.065000057 0.88500005 10526880
0.11500006 0.03500006 0.87500006 9474192
0.11500006 0.045000061 0.87500006 9474192
0.095000058 0.08500006 0.82500005 11579568
0.10500006 0.08500006 0.81500006 13684960
0.10500006 0.08500006 0.82500005 13684960
0.095000058 0.095000058 0.82500005 11583680
0.095000058 0.10500006 0.82500005 12636368
0.10500006 0.095000058 0.81500006 13684944
0.10500006 0.095000058 0.82500005 12636368
0.10500006 0.10500006 0.81500006 13684944
0.10500006 0.10500006 0.82500005 12636368
0.11500006 0.075000063 0.82500005 6316112
0.11500006 0.08500006 0.81500006 14737632
0.11500006 0.08500006 0.82500005 14737632
0.12500006 0.075000063 0.81500006 7364688
0.12500006 0.075000063 0.82500005 7364688
0.12500006 0.08500006 0.81500006 14737632
0.12500006 0.08500006 0.82500005 12632256
0.11500006 0.095000058 0.80500007 14737632
0.12500006 0.095000058 0.80500007 14737632
0.12500006 0.10500006 0.80500007 13689056
0.11500006 0.095000058 0.81500006 13689056
0.11500006 0.10500006 0.81500006 13684944
0.12500006 0.095000058 0.81500006 14737632
0.12500006 0.10500006 0.81500006 13689040
0.095000058 0.075000063 0.84500009 10526880
0.095000058 0.08500006 0.83500004 10526880
0.10500006 0.075000063 0.84500009 13689056
0.10500006 0.08500006 0.83500004 13684944
0.10500006 0.08500006 0.84500009 12636368
0.095000058 0.075000063 0.85500008 11579568
0.095000058 0.075000063 0.86500007 11579568
0.095000058 0.08500006 0.85500008 9478288
0.10500006 0.075000063 0.85500008 12636368
0.10500006 0.075000063 0.86500007 11583680
0.10500006 0.08500006 0.85500008 11583680
0.095000058 0.095000058 0.83500004 11579568
0.095000058 0.10500006 0.83500004 12632256
0.11500006 0.075000063 0.83500004 9474192
0.11500006 0.075000063 0.84500009 13684944
0.11500006 0.08500006 0.83500004 14737632
0.11500006 0.08500006 0.84500009 13689056
0.12500006 0.08500006 0.83500004 14737632
0.095000058 0.11500006 0.82500005 13684944
0.10500006 0.11500006 0.82500005 13684944
0.10500006 0.12500006 0.82500005 13689040
0.10500006 0.13500006 0.82500005 13684944
0.11500006 0.11500006 0.81500006 13689040
0.11500006 0.11500006 0.82500005 13684944
0.11500006 0.12500006 0.82500005 13684944
0.12500006 0.11500006 0.81500006 13689040
0.12500006 0.11500006 0.82500005 13689056
0.12500006 0.12500006 0.81500006 13689040
0.12500006 0.12500006 0.82500005 13689040
0.11500006 0.13500006 0.82500005 13689056
0.11500006 0.14500006 0.82500005 13689056
0.12500006 0.13500006 0.81500006 13684944
0.12500006 0.13500006 0.82500005 13684944
0.12500006 0.14500006 0.82500005 13689056
0.095000058 0.11500006 0.83500004 12632256
0.095000058 0.12500006 0.83500004 12632256
0.10500006 0.11500006 0.83500004 13684960
0.10500006 0.12500006 0.83500004 13684944
0.095000058 0.13500006 0.83500004 12632256
0.095000058 0.13500006 0.84500009 12632256
0.095000058 0.14500006 0.83500004 12636352
0.095000058 0.14500006 0.84500009 13684944
0.10500006 0.13500006 0.83500004 13684944
0.10500006 0.14500006 0.83500004 13684944
0.11500006 0.13500006 0.83500004 13689040
0.11500006 0.14500006 0.83500004 13689040
0.13500006 0.075000063 0.81500006 7364672
0.13500006 0.08500006 0.81500006 8417376
0.13500006 0.08500006 0.82500005 10522768
0.14500006 0.075000063 0.81500006 8413264
0.14500006 0.08500006 0.81500006 8413280
0.13500006 0.095000058 0.80500007 14737632
0.13500006 0.10500006 0.80500007 13689056
0.14500006 0.095000058 0.80500007 13689056
0.14500006 0.10500006 0.80500007 13684944
0.13500006 0.095000058 0.81500006 14737632
0.13500006 0.10500006 0.81500006 13684944
0.14500006 0.095000058 0.81500006 14737616
0.14500006 0.10500006 0.81500006 13684944
0.15500006 0.075000063 0.81500006 9465952
0.15500006 0.08500006 0.81500006 7360576
0.16500007 0.075000063 0.81500006 10518640
0.16500007 0.08500006 0.81500006 8417360
0.16500007 0.08500006 0.82500005 7364688
0.15500006 0.095000058 0.80500007 13684944
0.15500006 0.10500006 0.79500008 12636352
0.15500006 0.10500006 0.80500007 13684944
0.16500007 0.095000058 0.80500007 12636368
0.16500007 0.10500006 0.79500008 12636368
0.16500007 0.10500006 0.80500007 12632256
0.15500006 0.095000058 0.81500006 12632240
0.16500007 0.095000058 0.81500006 11579552
0.16500007 0.095000058 0.82500005 11579568
0.16500007 0.10500006 0.81500006 13684944
0.14500006 0.11500006 0.80500007 12636352
0.13500006 0.11500006 0.81500006 13684944
0.13500006 0.12500006 0.81500006 13684944
0.14500006 0.11500006 0.81500006 12636368
0.14500006 0.12500006 0.81500006 13684944
0.13500006 0.13500006 0.81500006 13689040
0.13500006 0.14500006 0.81500006 13684944
0.13500006 0.14500006 0.82500005 13684944
0.14500006 0.13500006 0.81500006 13684944
0.14500006 0.14500006 0.81500006 13684944
0.15500006 0.11500006 0.80500007 12632256
0.15500006 0.12500006 0.80500007 12632256
0.16500007 0.11500006 0.79500008 12632256
0.16500007 0.11500006 0.80500007 12632256
0.16500007 0.12500006 0.79500008 12632256
0.16500007 0.12500006 0.80500007 12632256
0.15500006 0.12500006 0.81500006 12632256
0.15500006 0.13500006 0.80500007 12632256
0.16500007 0.13500006 0.80500007 12632256
0.16500007 0.14500006 0.80500007 12636352
0.15500006 0.13500006 0.81500006 13684944
0.15500006 0.14500006 0.81500006 13684944
0.16500007 0.14500006 0.81500006 12636368
0.095000058 0.075000063 0.87500006 9478288
0.10500006 0.075000063 0.87500006 10526880
0.065000057 0.15500006 0.86500007 14737632
0.075000063 0.15500006 0.86500007 13689056
0.075000063 0.16500007 0.86500007 13684944
0.08500006 0.15500006 0.85500008 13689056
0.08500006 0.15500006 0.86500007 13684944
0.08500006 0.16500007 0.85500008 14737632
0.08500006 0.16500007 0.86500007 13689056
0.08500006 0.17500006 0.85500008 14737632
0.08500006 0.17500006 0.86500007 14737632
0.08500006 0.18500006 0.86500007 14737632
0.08500006 0.19500005 0.86500007 15790320
0.02500006 0.15500006 0.90500003 8421504
0.02500006 0.16500007 0.89500004 7372912
0.02500006 0.16500007 0.90500003 7372928
0.03500006 0.16500007 0.87500006 6320240
0.03500006 0.15500006 0.90500003 15790320
0.03500006 0.16500007 0.89500004 7372912
0.045000061 0.15500006 0.89500004 15790320
0.045000061 0.15500006 0.90500003 15790320
0.045000061 0.16500007 0.89500004 15790320
0.045000061 0.16500007 0.90500003 14741728
0.03500006 0.17500006 0.88500005 6320224
0.045000061 0.18500006 0.87500006 15790320
0.03500006 0.17500006 0.90500003 6320224
0.03500006 0.18500006 0.90500003 6320224
0.045000061 0.17500006 0.89500004 14741744
0.045000061 0.17500006 0.90500003 10530976
0.045000061 0.18500006 0.89500004 8425600
0.045000061 0.18500006 0.90500003 7368816
0.02500006 0.15500006 0.91500008 8425600
0.02500006 0.15500006 0.92500007 8425600
0.02500006 0.16500007 0.91500008 8421504
0.03500006 0.15500006 0.91500008 12632256
0.03500006 0.15500006 0.92500007 8425600
0.03500006 0.16500007 0.91500008 9474192
0.03500006 0.16500007 0.92500007 8425600
0.045000061 0.16500007 0.91500008 11579568
0.03500006 0.17500006 0.91500008 7368816
0.03500006 0.18500006 0.91500008 6320224
0.045000061 0.17500006 0.91500008 7372912
0.045000061 0.18500006 0.91500008 7372912
0.045000061 0.18500006 0.92500007 6320224
0.045000061 0.19500005 0.89500004 4214848
0.045000061 0.19500005 0.90500003 15790320
0.045000061 0.19500005 0.91500008 6320224
0.045000061 0.20500006 0.91500008 5267536
0.045000061 0.20500006 0.92500007 6320224
0.055000059 0.15500006 0.88500005 15790320
0.055000059 0.16500007 0.88500005 15790320
0.065000057 0.15500006 0.87500006 14741744
0.065000057 0.15500006 0.88500005 15790320
0.065000057 0.16500007 0.87500006 14741744
0.065000057 0.16500007 0.88500005 15790320
0.055000059 0.15500006 0.89500004 15790320
0.055000059 0.16500007 0.89500004 15790320
0.055000059 0.17500006 0.88500005 15790320
0.055000059 0.18500006 0.88500005 14741744
0.065000057 0.17500006 0.87500006 15790320
0.065000057 0.17500006 0.88500005 15790320
0.065000057 0.18500006 0.87500006 15790320
0.065000057 0.18500006 0.88500005 15790320
0.055000059 0.17500006 0.89500004 15790320
0.055000059 0.18500006 0.89500004 11583664
0.055000059 0.18500006 0.90500003 6320224
0.075000063 0.15500006 0.87500006 14737632
0.075000063 0.16500007 0.87500006 14737632
0.075000063 0.17500006 0.87500006 14741744
0.075000063 0.18500006 0.87500006 15790320
0.075000063 0.18500006 0.88500005 15790320
0.08500006 0.17500006 0.87500006 14737632
0.08500006 0.18500006 0.87500006 14741744
0.055000059 0.20500006 0.87500006 15790320
0.055000059 0.20500006 0.88500005 15790320
0.065000057 0.19500005 0.88500005 15790320
0.055000059 0.19500005 0.89500004 7368816
0.055000059 0.19500005 0.90500003 4210752
0.055000059 0.20500006 0.89500004 5263440
0.055000059 0.20500006 0.90500003 5267536
0.065000057 0.19500005 0.89500004 8421504
0.065000057 0.19500005 0.90500003 2109472
0.065000057 0.20500006 0.89500004 7368816
0.065000057 0.20500006 0.90500003 5267536
0.065000057 0.21500006 0.89500004 3162160
0.065000057 0.21500006 0.90500003 11579568
0.075000063 0.19500005 0.87500006 15790320
0.075000063 0.19500005 0.88500005 15790320
0.075000063 0.20500006 0.88500005 15790320
0.08500006 0.19500005 0.87500006 15790320
0.08500006 0.20500006 0.87500006 15790320
0.08500006 0.20500006 0.88500005 15790320
0.075000063 0.20500006 0.89500004 7368816
0.075000063 0.21500006 0.88500005 14737632
0.08500006 0.21500006 0.88500005 15790320
0.08500006 0.22500005 0.88500005 15790320
0.075000063 0.21500006 0.89500004 4210752
0.075000063 0.21500006 0.90500003 4210736
0.075000063 0.22500005 0.90500003 3158064
0.08500006 0.21500006 0.89500004 10526880
0.08500006 0.22500005 0.89500004 5263440
0.08500006 0.22500005 0.90500003 3158048
0.055000059 0.19500005 0.91500008 6320224
0.055000059 0.20500006 0.91500008 4214848
0.055000059 0.20500006 0.92500007 5263424
0.065000057 0.21500006 0.91500008 7368816
0.065000057 0.22500005 0.91500008 6316128
0.065000057 0.22500005 0.92500007 6320224
0.075000063 0.22500005 0.91500008 3162160
0.075000063 0.22500005 0.92500007 5267536
0.08500006 0.22500005 0.91500008 3158064
0.08500006 0.23500006 0.90500003 3158048
0.065000057 0.23500006 0.92500007 6320224
0.065000057 0.23500006 0.93500006 6320224
0.075000063 0.23500006 0.92500007 3158064
0.075000063 0.24500006 0.91500008 6316112
0.08500006 0.23500006 0.91500008 3158048
0.075000063 0.23500006 0.93500006 6320224
0.075000063 0.23500006 0.94500005 5267536
0.075000063 0.24500006 0.94500005 6316128
0.08500006 0.23500006 0.93500006 3158064
0.08500006 0.23500006 0.94500005 4214848
0.075000063 0.25500005 0.94500005 6320224
0.08500006 0.25500005 0.94500005 6320208
0.11500006 0.15500006 0.82500005 13689040
0.12500006 0.15500006 0.82500005 14737632
0.12500006 0.16500007 0.82500005 13689040
0.095000058 0.15500006 0.84500009 13689056
0.095000058 0.16500007 0.84500009 14737632
0.10500006 0.15500006 0.83500004 13684944
0.10500006 0.15500006 0.84500009 13684944
0.10500006 0.16500007 0.83500004 13684944
0.10500006 0.16500007 0.84500009 14737632
0.095000058 0.15500006 0.85500008 13689056
0.095000058 0.16500007 0.85500008 13689056
0.10500006 0.17500006 0.83500004 14737632
0.10500006 0.17500006 0.84500009 14737632
0.10500006 0.18500006 0.84500009 14737632
0.095000058 0.17500006 0.85500008 14737632
0.095000058 0.17500006 0.86500007 14737632
0.095000058 0.18500006 0.85500008 14737632
0.095000058 0.18500006 0.86500007 14741728
0.10500006 0.17500006 0.85500008 14737632
0.10500006 0.18500006 0.85500008 14737632
0.11500006 0.15500006 0.83500004 14737632
0.11500006 0.16500007 0.83500004 13689056
0.12500006 0.15500006 0.83500004 13689056
0.12500006 0.16500007 0.83500004 14737632
0.11500006 0.17500006 0.83500004 13689040
0.11500006 0.17500006 0.84500009 14737632
0.11500006 0.18500006 0.84500009 14737632
0.12500006 0.17500006 0.83500004 14737632
0.12500006 0.17500006 0.84500009 13689040
0.12500006 0.18500006 0.83500004 13689056
0.12500006 0.18500006 0.84500009 14737632
0.10500006 0.19500005 0.84500009 14737632
0.095000058 0.19500005 0.85500008 14741744
0.095000058 0.19500005 0.86500007 15790320
0.095000058 0.20500006 0.86500007 15790320
0.10500006 0.19500005 0.85500008 14741728
0.10500006 0.19500005 0.86500007 14741744
0.10500006 0.20500006 0.85500008 15790320
0.10500006 0.20500006 0.86500007 15790320
0.10500006 0.21500006 0.86500007 15790320
0.11500006 0.19500005 0.84500009 14737632
0.11500006 0.20500006 0.84500009 14741744
0.12500006 0.19500005 0.83500004 14737632
0.12500006 0.19500005 0.84500009 14737632
0.12500006 0.20500006 0.84500009 14741744
0.11500006 0.19500005 0.85500008 14737632
