# .PCD v0.7 - Point Cloud Data file format
VERSION 0.7
FIELDS x y z rgba
SIZE 4 4 4 4
TYPE F F F U
COUNT 1 1 1 1
WIDTH 1220
HEIGHT 1
VIEWPOINT 0 0 0 1 0 0 0
POINTS 1220
DATA ascii
0.13500006 0.37500006 1.0250001 3158048
0.13500006 0.38500005 1.0250001 3158048
0.14500006 0.37500006 1.0150001 4210736
0.14500006 0.37500006 1.0250001 3158048
0.15500006 0.35500005 1.0250001 8413264
0.15500006 0.36500007 1.0250001 11571328
0.16500007 0.35500005 1.0250001 8413264
0.16500007 0.36500007 1.0250001 7364688
0.15500006 0.37500006 1.0050001 4210736
0.15500006 0.37500006 1.0150001 4210720
0.15500006 0.37500006 1.0250001 4210736
0.15500006 0.38500005 1.0150001 4210736
0.15500006 0.38500005 1.0250001 4210736
0.095000058 0.31500006 1.0350001 2105360
0.10500006 0.31500006 1.0350001 2105360
0.10500006 0.31500006 1.0450001 2105360
0.10500006 0.32500005 1.0350001 2105376
0.10500006 0.33500007 1.0350001 2105360
0.10500006 0.34500006 1.0350001 2105360
0.11500006 0.31500006 1.0350001 3158048
0.11500006 0.32500005 1.0350001 3158048
0.12500006 0.31500006 1.0350001 4206624
0.12500006 0.31500006 1.0450001 4206624
0.12500006 0.32500005 1.0350001 3158048
0.12500006 0.32500005 1.0450001 3158048
0.11500006 0.33500007 1.0350001 2105376
0.11500006 0.34500006 1.0350001 2105360
0.11500006 0.34500006 1.0450001 2105360
0.12500006 0.33500007 1.0350001 3153952
0.12500006 0.34500006 1.0350001 2105360
0.10500006 0.35500005 1.0350001 2105360
0.10500006 0.36500007 1.0350001 2105360
0.10500006 0.38500005 1.0350001 3158048
0.11500006 0.35500005 1.0350001 2105360
0.11500006 0.36500007 1.0350001 2105376
0.12500006 0.35500005 1.0350001 2105360
0.12500006 0.36500007 1.0350001 2105376
0.11500006 0.37500006 1.0350001 2109472
0.11500006 0.38500005 1.0350001 2105376
0.12500006 0.37500006 1.0350001 3158048
0.12500006 0.38500005 1.0350001 3158048
0.13500006 0.31500006 1.0450001 5259312
0.13500006 0.32500005 1.0350001 4206624
0.13500006 0.32500005 1.0450001 4206624
0.14500006 0.31500006 1.0450001 5259312
0.14500006 0.32500005 1.0350001 3158032
0.14500006 0.32500005 1.0450001 4206624
0.13500006 0.33500007 1.0350001 3158048
0.13500006 0.33500007 1.0450001 3158048
0.13500006 0.34500006 1.0350001 3158048
0.14500006 0.33500007 1.0350001 3158048
0.14500006 0.33500007 1.0450001 3158048
0.14500006 0.34500006 1.0350001 3158048
0.14500006 0.34500006 1.0450001 3158048
0.15500006 0.31500006 1.0450001 4206624
0.15500006 0.32500005 1.0350001 6307888
0.15500006 0.32500005 1.0450001 4206624
0.16500007 0.31500006 1.0350001 7360560
0.16500007 0.31500006 1.0450001 6307888
0.16500007 0.32500005 1.0350001 7360576
0.16500007 0.32500005 1.0450001 8409152
0.15500006 0.31500006 1.0550001 4206624
0.16500007 0.31500006 1.0550001 6307872
0.15500006 0.33500007 1.0350001 5255200
0.15500006 0.34500006 1.0350001 3158048
0.16500007 0.33500007 1.0450001 7360576
0.16500007 0.34500006 1.0350001 7360576
0.16500007 0.34500006 1.0450001 7360576
0.16500007 0.33500007 1.0550001 7360576
0.16500007 0.34500006 1.0550001 7360576
0.13500006 0.35500005 1.0350001 2105360
0.13500006 0.35500005 1.0450001 3153952
0.13500006 0.36500007 1.0350001 2105376
0.13500006 0.36500007 1.0450001 2105360
0.14500006 0.35500005 1.0350001 3153936
0.14500006 0.35500005 1.0450001 3153936
0.14500006 0.36500007 1.0350001 3158048
0.13500006 0.37500006 1.0350001 3158048
0.13500006 0.38500005 1.0350001 3158048
0.14500006 0.37500006 1.0350001 3158048
0.14500006 0.38500005 1.0350001 3158048
0.15500006 0.35500005 1.0350001 3158032
0.15500006 0.36500007 1.0350001 3158048
0.16500007 0.35500005 1.0350001 7360576
0.16500007 0.35500005 1.0450001 6307888
0.16500007 0.36500007 1.0350001 5263424
0.15500006 0.37500006 1.0350001 3158048
0.15500006 0.37500006 1.0450001 3158048
0.15500006 0.38500005 1.0350001 4210736
0.16500007 0.37500006 1.0350001 4206624
0.16500007 0.37500006 1.0450001 3158048
0.16500007 0.38500005 1.0350001 4210736
0.16500007 0.38500005 1.0450001 3158048
0.095000058 0.39500007 1.0250001 3158048
0.10500006 0.39500007 1.0250001 3158048
0.10500006 0.40500006 1.0250001 3158048
0.095000058 0.42500007 1.0250001 3158048
0.10500006 0.41500005 1.0250001 3158048
0.11500006 0.39500007 1.0250001 3158048
0.11500006 0.40500006 1.0150001 4210736
0.11500006 0.40500006 1.0250001 3162144
0.12500006 0.39500007 1.0250001 3158048
0.12500006 0.40500006 1.0250001 4210736
0.11500006 0.41500005 1.0250001 3158048
0.12500006 0.41500005 1.0250001 4210736
0.13500006 0.39500007 1.0250001 2105376
0.14500006 0.39500007 1.0250001 2105376
0.15500006 0.40500006 1.0250001 5263424
0.15500006 0.41500005 1.0250001 6316112
0.095000058 0.40500006 1.0350001 3158048
0.10500006 0.39500007 1.0350001 3158048
0.10500006 0.40500006 1.0350001 3158048
0.095000058 0.41500005 1.0350001 3158048
0.095000058 0.41500005 1.0450001 3158048
0.095000058 0.42500007 1.0350001 3158048
0.095000058 0.42500007 1.0450001 3158048
0.10500006 0.41500005 1.0350001 3158048
0.10500006 0.42500007 1.0350001 4210720
0.10500006 0.42500007 1.0450001 3158048
0.11500006 0.39500007 1.0350001 3158048
0.11500006 0.40500006 1.0350001 3158048
0.11500006 0.40500006 1.0450001 3158048
0.12500006 0.39500007 1.0350001 3158048
0.12500006 0.40500006 1.0350001 4210736
0.12500006 0.40500006 1.0450001 3158048
0.11500006 0.40500006 1.0550001 4210720
0.11500006 0.41500005 1.0350001 3158048
0.11500006 0.42500007 1.0350001 4210736
0.11500006 0.42500007 1.0450001 4210736
0.12500006 0.41500005 1.0350001 3158048
0.12500006 0.41500005 1.0450001 4210736
0.12500006 0.42500007 1.0350001 4210736
0.12500006 0.42500007 1.0550001 3158048
0.12500006 0.42500007 1.0650001 4210736
0.095000058 0.43500006 1.0450001 4210736
0.10500006 0.43500006 1.0450001 4210736
0.10500006 0.44500005 1.0450001 4210736
0.095000058 0.43500006 1.0550001 4210720
0.095000058 0.44500005 1.0550001 5263408
0.095000058 0.44500005 1.0650001 6316096
0.10500006 0.43500006 1.0650001 4210736
0.10500006 0.44500005 1.0550001 5263424
0.10500006 0.44500005 1.0650001 4210736
0.10500006 0.45500007 1.0650001 6316096
0.12500006 0.43500006 1.0450001 5263408
0.11500006 0.43500006 1.0650001 4210736
0.11500006 0.44500005 1.0650001 5263424
0.12500006 0.43500006 1.0550001 4210736
0.12500006 0.43500006 1.0650001 4210736
0.12500006 0.44500005 1.0650001 5263408
0.095000058 0.44500005 1.075 4210736
0.10500006 0.44500005 1.085 4210736
0.095000058 0.45500007 1.075 7372896
0.095000058 0.45500007 1.085 3158048
0.10500006 0.45500007 1.075 6316096
0.10500006 0.45500007 1.095 5259312
0.10500006 0.46500006 1.095 6316096
0.10500006 0.46500006 1.105 6316096
0.11500006 0.44500005 1.075 4210720
0.12500006 0.44500005 1.075 5263408
0.11500006 0.46500006 1.085 5263424
0.12500006 0.45500007 1.085 5263408
0.11500006 0.45500007 1.095 5263408
0.12500006 0.45500007 1.095 2105376
0.13500006 0.39500007 1.0350001 2105376
0.13500006 0.40500006 1.0350001 3158048
0.13500006 0.40500006 1.0450001 3158048
0.14500006 0.39500007 1.0350001 3158048
0.14500006 0.39500007 1.0450001 3158048
0.14500006 0.40500006 1.0450001 2109472
0.14500006 0.40500006 1.0550001 3158048
0.13500006 0.41500005 1.0450001 4210736
0.13500006 0.42500007 1.0350001 5263424
0.13500006 0.42500007 1.0450001 4210736
0.14500006 0.41500005 1.0350001 5263424
0.14500006 0.41500005 1.0450001 3162144
0.14500006 0.42500007 1.0450001 4210736
0.13500006 0.41500005 1.0550001 4210736
0.13500006 0.41500005 1.0650001 3162144
0.13500006 0.42500007 1.0550001 3158048
0.13500006 0.42500007 1.0650001 3158048
0.14500006 0.41500005 1.0550001 3158048
0.14500006 0.41500005 1.0650001 3158048
0.14500006 0.42500007 1.0550001 5263424
0.14500006 0.42500007 1.0650001 4210736
0.15500006 0.39500007 1.0350001 3158048
0.15500006 0.39500007 1.0450001 3158048
0.16500007 0.39500007 1.0350001 4210736
0.16500007 0.39500007 1.0450001 5263424
0.16500007 0.40500006 1.0450001 6316112
0.15500006 0.40500006 1.0550001 3158048
0.15500006 0.40500006 1.0650001 3158048
0.16500007 0.39500007 1.0550001 3158048
0.16500007 0.39500007 1.0650001 3158048
0.16500007 0.40500006 1.0550001 2109472
0.15500006 0.41500005 1.0350001 5263424
0.15500006 0.41500005 1.0450001 3158048
0.15500006 0.42500007 1.0450001 5267520
0.15500006 0.41500005 1.0550001 3158048
0.15500006 0.41500005 1.0650001 3158048
0.15500006 0.42500007 1.0550001 6316112
0.15500006 0.42500007 1.0650001 3162160
0.16500007 0.41500005 1.0550001 4210736
0.16500007 0.41500005 1.0650001 4210736
0.16500007 0.42500007 1.0550001 4210736
0.16500007 0.42500007 1.0650001 5263408
0.13500006 0.42500007 1.075 4210736
0.16500007 0.40500006 1.075 4210736
0.15500006 0.41500005 1.075 3158048
0.15500006 0.42500007 1.075 3158048
0.15500006 0.42500007 1.085 3158048
0.16500007 0.41500005 1.075 3158064
0.16500007 0.42500007 1.075 4210736
0.16500007 0.42500007 1.085 3158048
0.13500006 0.43500006 1.0650001 3158048
0.13500006 0.44500005 1.0650001 6316112
0.14500006 0.43500006 1.0550001 5263424
0.14500006 0.43500006 1.0650001 3158064
0.14500006 0.44500005 1.0650001 6320224
0.13500006 0.43500006 1.075 3158048
0.13500006 0.44500005 1.075 4214832
0.14500006 0.43500006 1.075 3158048
0.14500006 0.43500006 1.085 5263408
0.14500006 0.44500005 1.075 6316112
0.14500006 0.44500005 1.085 6316112
0.13500006 0.44500005 1.095 4210736
0.13500006 0.45500007 1.075 6316112
0.13500006 0.46500006 1.095 6316112
0.13500006 0.46500006 1.105 7368784
0.14500006 0.45500007 1.095 7368800
0.14500006 0.45500007 1.105 6320224
0.15500006 0.43500006 1.075 5263424
0.16500007 0.43500006 1.075 3158048
0.16500007 0.43500006 1.085 5263424
0.15500006 0.44500005 1.095 5267520
0.16500007 0.43500006 1.095 4214848
0.16500007 0.43500006 1.105 4210736
0.15500006 0.45500007 1.105 3162160
0.015000059 0.36500007 1.115 9474176
0.02500006 0.39500007 1.115 7368800
0.03500006 0.42500007 1.115 8425584
0.03500006 0.43500006 1.125 9474176
0.055000059 0.44500005 1.115 8421488
0.055000059 0.44500005 1.125 6316112
0.055000059 0.45500007 1.1350001 7368800
0.055000059 0.46500006 1.1550001 6316096
0.14500006 0.46500006 1.125 6316112
0.16500007 0.43500006 1.115 3158048
0.15500006 0.45500007 1.115 7368800
0.15500006 0.46500006 1.125 6320208
0.11500006 0.47500005 1.105 6316096
0.10500006 0.47500005 1.125 6316096
0.12500006 0.47500005 1.115 5263424
0.12500006 0.48500007 1.125 5263424
0.11500006 0.49500006 1.1550001 7368784
0.12500006 0.50500005 1.1750001 7368784
0.14500006 0.47500005 1.115 7372896
0.14500006 0.47500005 1.125 7368800
0.14500006 0.48500007 1.125 8425584
0.13500006 0.48500007 1.1350001 6316112
0.13500006 0.48500007 1.1450001 4210736
0.15500006 0.48500007 1.1450001 7372896
0.14500006 0.49500006 1.1550001 7368800
0.13500006 0.50500005 1.1750001 7368784
0.15500006 0.48500007 1.1550001 7368800
0.13500006 0.50500005 1.1950001 6316112
0.17500006 0.31500006 1.0450001 9465952
0.17500006 0.32500005 1.0450001 8413264
0.17500006 0.31500006 1.0550001 8413264
0.17500006 0.32500005 1.0550001 8413264
0.18500006 0.31500006 1.0550001 8413264
0.18500006 0.32500005 1.0550001 7364688
0.17500006 0.34500006 1.0450001 6312000
0.17500006 0.33500007 1.0550001 7364688
0.17500006 0.34500006 1.0550001 5259312
0.18500006 0.33500007 1.0550001 5259312
0.18500006 0.34500006 1.0550001 3153952
0.18500006 0.34500006 1.0650001 3158048
0.19500005 0.31500006 1.0550001 8417376
0.19500005 0.31500006 1.0650001 8417376
0.19500005 0.32500005 1.0550001 8417376
0.19500005 0.32500005 1.0650001 7364688
0.20500006 0.31500006 1.0650001 9470048
0.20500006 0.32500005 1.0650001 8417376
0.19500005 0.33500007 1.0650001 5259312
0.19500005 0.34500006 1.0650001 4210736
0.20500006 0.33500007 1.0650001 8417376
0.20500006 0.34500006 1.0650001 10522736
0.20500006 0.31500006 1.075 9470048
0.20500006 0.32500005 1.075 9465952
0.19500005 0.34500006 1.075 5263424
0.20500006 0.33500007 1.075 9470064
0.20500006 0.34500006 1.075 10522736
0.17500006 0.35500005 1.0450001 4206624
0.17500006 0.36500007 1.0350001 2101248
0.17500006 0.36500007 1.0450001 2101264
0.18500006 0.36500007 1.0450001 2105360
0.17500006 0.35500005 1.0550001 4206624
0.17500006 0.36500007 1.0550001 4206624
0.18500006 0.35500005 1.0550001 2105360
0.18500006 0.35500005 1.0650001 2105360
0.18500006 0.36500007 1.0550001 2105360
0.18500006 0.36500007 1.0650001 2105360
0.17500006 0.37500006 1.0450001 3158048
0.18500006 0.37500006 1.0450001 3158048
0.18500006 0.38500005 1.0450001 3162144
0.17500006 0.37500006 1.0550001 4206624
0.17500006 0.37500006 1.0650001 4210736
0.17500006 0.38500005 1.0550001 4210736
0.17500006 0.38500005 1.0650001 4210736
0.18500006 0.37500006 1.0550001 2105360
0.18500006 0.38500005 1.0550001 4210736
0.19500005 0.35500005 1.0650001 4206624
0.19500005 0.36500007 1.0650001 2105360
0.19500005 0.37500006 1.0450001 4210736
0.19500005 0.38500005 1.0450001 4210736
0.19500005 0.37500006 1.0550001 4210736
0.19500005 0.37500006 1.0650001 3158048
0.19500005 0.38500005 1.0550001 4210736
0.19500005 0.38500005 1.0650001 3158032
0.20500006 0.38500005 1.0650001 5263424
0.19500005 0.35500005 1.075 4210736
0.19500005 0.36500007 1.075 3158048
0.20500006 0.35500005 1.075 9470048
0.20500006 0.35500005 1.085 9470064
0.20500006 0.36500007 1.075 9470048
0.20500006 0.36500007 1.085 9470064
0.19500005 0.37500006 1.075 2105360
0.20500006 0.37500006 1.075 5259312
0.20500006 0.37500006 1.085 7364688
0.20500006 0.38500005 1.075 6316112
0.20500006 0.38500005 1.085 5263408
0.21500006 0.31500006 1.075 9470048
0.21500006 0.31500006 1.085 9470048
0.21500006 0.32500005 1.075 9470048
0.22500005 0.31500006 1.085 9470064
0.22500005 0.32500005 1.085 9474160
0.22500005 0.31500006 1.095 7368800
0.21500006 0.33500007 1.075 10522736
0.21500006 0.33500007 1.085 10522752
0.21500006 0.34500006 1.075 11575424
0.21500006 0.34500006 1.085 10522736
0.22500005 0.33500007 1.085 7372896
0.22500005 0.34500006 1.085 7372896
0.21500006 0.33500007 1.095 7364688
0.21500006 0.34500006 1.095 10522736
0.22500005 0.33500007 1.095 7368784
0.22500005 0.34500006 1.095 6316096
0.21500006 0.35500005 1.085 10522736
0.21500006 0.36500007 1.085 10522736
0.21500006 0.35500005 1.095 10522736
0.21500006 0.36500007 1.095 10522736
0.22500005 0.35500005 1.095 7364688
0.22500005 0.36500007 1.095 10522752
0.22500005 0.36500007 1.105 5263408
0.21500006 0.37500006 1.085 10522736
0.21500006 0.38500005 1.085 8421488
0.21500006 0.37500006 1.095 10522736
0.21500006 0.38500005 1.095 7368800
0.17500006 0.39500007 0.98500007 9478272
0.17500006 0.39500007 1.0350001 4210736
0.17500006 0.39500007 1.0450001 4210736
0.17500006 0.40500006 1.0450001 6316112
0.17500006 0.39500007 1.0550001 5263424
0.17500006 0.39500007 1.0650001 5263424
0.17500006 0.40500006 1.0550001 3158048
0.17500006 0.40500006 1.0650001 3158064
0.18500006 0.39500007 1.0550001 5263424
0.18500006 0.39500007 1.0650001 4210736
0.18500006 0.40500006 1.0650001 5263424
0.17500006 0.41500005 1.0650001 2105360
0.17500006 0.39500007 1.075 6316096
0.17500006 0.40500006 1.085 5263424
0.18500006 0.39500007 1.075 4210736
0.18500006 0.39500007 1.085 2109456
0.18500006 0.40500006 1.085 3158064
0.18500006 0.40500006 1.095 5263424
0.18500006 0.40500006 1.105 5263424
0.17500006 0.41500005 1.075 4210736
0.18500006 0.41500005 1.085 6316112
0.18500006 0.42500007 1.085 5263408
0.18500006 0.42500007 1.095 6316096
0.19500005 0.39500007 1.075 2105376
0.19500005 0.39500007 1.085 3158048
0.20500006 0.39500007 1.075 3158048
0.20500006 0.39500007 1.085 5263408
0.20500006 0.40500006 1.085 4210736
0.19500005 0.40500006 1.095 4210736
0.20500006 0.40500006 1.095 3158048
0.20500006 0.40500006 1.105 4210736
0.19500005 0.41500005 1.095 3158048
0.17500006 0.43500006 1.0650001 7368800
0.17500006 0.43500006 1.095 5263424
0.17500006 0.43500006 1.105 4210736
0.18500006 0.43500006 1.095 6316112
0.18500006 0.44500005 1.105 4210736
0.22500005 0.36500007 1.115 8421472
0.18500006 0.41500005 1.115 6316112
0.20500006 0.41500005 1.115 3162160
0.17500006 0.43500006 1.115 4210736
0.18500006 0.44500005 1.115 4210736
0.17500006 0.45500007 1.125 5263424
0.18500006 0.45500007 1.115 7368800
0.18500006 0.45500007 1.1350001 4210736
0.33500007 -0.0049999403 0.76500005 0
0.34500006 -0.0049999403 0.76500005 14733472
0.33500007 -0.0049999403 0.77500004 0
0.34500006 -0.0049999403 0.77500004 14733472
0.34500006 -0.0049999403 0.78500009 9474160
0.35500005 -0.0049999403 0.75500005 11571296
0.35500005 -0.0049999403 0.76500005 13680784
0.36500007 -0.0049999403 0.75500005 10518608
0.36500007 -0.0049999403 0.76500005 12623984
0.35500005 -0.0049999403 0.77500004 12628112
0.35500005 -0.0049999403 0.78500009 12628112
0.36500007 -0.0049999403 0.77500004 12624000
0.37500006 -0.0049999403 0.75500005 11571296
0.37500006 -0.0049999403 0.76500005 11567200
0.37500006 0.0050000595 0.75500005 13676672
0.37500006 0.0050000595 0.76500005 14733472
0.38500005 -0.0049999403 0.75500005 10514512
0.38500005 -0.0049999403 0.76500005 12623984
0.38500005 0.0050000595 0.76500005 13680800
0.37500006 0.0050000595 0.77500004 9470064
0.38500005 0.0050000595 0.77500004 14733488
0.39500007 -0.0049999403 0.75500005 11571312
0.39500007 -0.0049999403 0.76500005 13676688
0.40500006 -0.0049999403 0.75500005 12624000
0.39500007 0.0050000595 0.77500004 13680784
0.40500006 -0.0049999403 0.77500004 15786192
0.41500005 -0.0049999403 0.76500005 9461824
0.41500005 -0.0049999403 0.77500004 15790304
0.36500007 -0.0049999403 0.90500003 5255200
0.33500007 -0.0049999403 0.93500006 9453616
0.33500007 -0.0049999403 0.94500005 9449520
0.33500007 0.0050000595 0.94500005 8413264
0.34500006 -0.0049999403 0.93500006 8405040
0.34500006 -0.0049999403 0.94500005 8405040
0.34500006 0.0050000595 0.94500005 8409152
0.36500007 -0.0049999403 0.92500007 5255200
0.35500005 -0.0049999403 0.94500005 9461840
0.35500005 0.0050000595 0.93500006 10518640
0.35500005 0.0050000595 0.94500005 9465952
0.36500007 -0.0049999403 0.94500005 9461840
0.36500007 0.0050000595 0.93500006 9470048
0.36500007 0.0050000595 0.94500005 11567216
0.35500005 0.015000059 0.91500008 8417360
0.36500007 0.045000061 0.94500005 7364704
0.37500006 -0.0049999403 0.94500005 6307888
0.37500006 0.0050000595 0.93500006 9465952
0.37500006 0.0050000595 0.94500005 10514528
0.38500005 0.0050000595 0.94500005 8413264
0.33500007 0.0050000595 0.95500004 9465952
0.33500007 0.0050000595 0.96500003 9465952
0.34500006 -0.0049999403 0.95500004 8409168
0.34500006 0.0050000595 0.95500004 8413264
0.34500006 0.0050000595 0.96500003 8413264
0.34500006 0.0050000595 0.98500007 9465952
0.33500007 0.015000059 0.96500003 9470064
0.33500007 0.02500006 0.95500004 6324336
0.33500007 0.02500006 0.96500003 5275760
0.33500007 0.015000059 0.97500008 10522752
0.33500007 0.015000059 0.98500007 7372912
0.33500007 0.02500006 0.97500008 6324336
0.34500006 0.015000059 0.98500007 8421488
0.34500006 0.02500006 0.97500008 7377008
0.35500005 -0.0049999403 0.95500004 7360576
0.35500005 0.0050000595 0.95500004 7364688
0.35500005 0.0050000595 0.96500003 7364688
0.36500007 -0.0049999403 0.95500004 7356464
0.35500005 0.0050000595 0.97500008 7364688
0.35500005 0.0050000595 0.98500007 8417376
0.36500007 0.0050000595 0.97500008 7364704
0.36500007 0.0050000595 0.98500007 6312016
0.36500007 0.015000059 0.97500008 7364720
0.34500006 0.015000059 0.99500006 10522752
0.34500006 0.02500006 0.99500006 7372912
0.33500007 0.02500006 1.0150001 6328416
0.35500005 0.0050000595 0.99500006 8413264
0.35500005 0.0050000595 1.0050001 9465952
0.36500007 0.0050000595 0.99500006 7364688
0.36500007 0.0050000595 1.0150001 8417360
0.35500005 0.015000059 1.0050001 10526848
0.35500005 0.02500006 0.99500006 8425584
0.35500005 0.02500006 1.0050001 8425584
0.36500007 0.02500006 1.0050001 9470064
0.35500005 0.015000059 1.0150001 10522752
0.35500005 0.02500006 1.0150001 10522752
0.36500007 0.015000059 1.0150001 9470048
0.36500007 0.02500006 1.0150001 9470064
0.34500006 0.03500006 0.97500008 1052688
0.33500007 0.065000057 0.98500007 6328432
0.34500006 0.065000057 0.98500007 6328416
0.36500007 0.03500006 0.95500004 12619904
0.36500007 0.03500006 0.96500003 10518624
0.36500007 0.045000061 0.95500004 10522752
0.36500007 0.045000061 0.96500003 5259328
0.35500005 0.03500006 0.97500008 7368800
0.35500005 0.03500006 0.98500007 7372896
0.36500007 0.03500006 0.97500008 9465936
0.36500007 0.03500006 0.98500007 10518640
0.36500007 0.045000061 0.97500008 6312000
0.36500007 0.045000061 0.98500007 1052688
0.34500006 0.065000057 1.0250001 6328416
0.35500005 0.03500006 0.99500006 7372912
0.36500007 0.03500006 0.99500006 8421472
0.36500007 0.03500006 1.0050001 10518640
0.36500007 0.045000061 0.99500006 7372896
0.35500005 0.065000057 1.0050001 6328432
0.35500005 0.065000057 1.0250001 6328416
0.37500006 -0.0049999403 0.95500004 7356464
0.37500006 0.015000059 0.98500007 7364704
0.37500006 0.02500006 0.97500008 7356464
0.37500006 0.02500006 0.98500007 6311984
0.37500006 0.0050000595 1.0050001 7364704
0.37500006 0.0050000595 1.0150001 7364688
0.37500006 0.015000059 0.99500006 8417392
0.37500006 0.015000059 1.0050001 7364688
0.37500006 0.02500006 0.99500006 7360576
0.37500006 0.02500006 1.0050001 7364672
0.38500005 0.02500006 0.99500006 7356464
0.37500006 0.015000059 1.0150001 8417376
0.37500006 0.03500006 0.95500004 10518640
0.37500006 0.03500006 0.96500003 10518624
0.37500006 0.045000061 0.95500004 9465952
0.37500006 0.03500006 0.97500008 10514512
0.37500006 0.03500006 0.98500007 9461824
0.37500006 0.03500006 0.99500006 9461824
0.33500007 0.02500006 1.0350001 5279840
0.33500007 0.02500006 1.0450001 6328432
0.33500007 0.02500006 1.0550001 7385216
0.33500007 0.03500006 1.0450001 9486480
0.33500007 0.045000061 1.0450001 8433792
0.33500007 0.03500006 1.0550001 9486496
0.33500007 0.03500006 1.0650001 10535072
0.34500006 0.03500006 1.0650001 8433792
0.34500006 0.045000061 1.0650001 9486496
0.34500006 0.055000059 1.0650001 5279840
0.36500007 0.065000057 1.0450001 6328416
0.34500006 0.03500006 1.075 10539168
0.34500006 0.045000061 1.075 10539184
0.35500005 0.03500006 1.075 5279840
0.35500005 0.03500006 1.085 9486496
0.35500005 0.045000061 1.075 12640448
0.35500005 0.045000061 1.085 13689040
0.35500005 0.045000061 1.095 8429696
0.36500007 0.045000061 1.095 7377008
0.36500007 0.055000059 1.085 10539168
0.36500007 0.065000057 1.085 5279840
0.35500005 0.055000059 1.095 6332528
0.36500007 0.055000059 1.095 8433808
0.36500007 0.055000059 1.105 10539184
0.36500007 0.065000057 1.095 6332528
0.33500007 0.08500006 0.97500008 11575440
0.33500007 0.08500006 0.98500007 9478272
0.34500006 0.08500006 0.97500008 11575440
0.34500006 0.08500006 0.98500007 10522752
0.33500007 0.095000058 0.97500008 8433792
0.33500007 0.095000058 0.98500007 10530976
0.34500006 0.095000058 0.97500008 8433792
0.34500006 0.095000058 0.98500007 9478288
0.35500005 0.08500006 0.97500008 9470064
0.35500005 0.08500006 0.98500007 8425600
0.35500005 0.095000058 0.98500007 9478272
0.33500007 0.08500006 0.99500006 11571328
0.33500007 0.08500006 1.0050001 7372880
0.34500006 0.075000063 1.0050001 8425584
0.34500006 0.08500006 0.99500006 11571328
0.34500006 0.08500006 1.0050001 10522736
0.33500007 0.08500006 1.0250001 5275728
0.34500006 0.075000063 1.0150001 9478288
0.34500006 0.075000063 1.0250001 4231248
0.34500006 0.08500006 1.0150001 11571328
0.34500006 0.08500006 1.0250001 7372880
0.33500007 0.095000058 0.99500006 7381120
0.33500007 0.095000058 1.0050001 8429712
0.34500006 0.095000058 0.99500006 7381104
0.34500006 0.095000058 1.0150001 8429696
0.34500006 0.095000058 1.0250001 4231264
0.34500006 0.10500006 1.0250001 5279840
0.35500005 0.08500006 0.99500006 10518640
0.35500005 0.08500006 1.0050001 10522752
0.36500007 0.075000063 1.0050001 8421504
0.36500007 0.08500006 0.99500006 7372880
0.35500005 0.075000063 1.0150001 8425584
0.35500005 0.075000063 1.0250001 10526848
0.35500005 0.08500006 1.0150001 10522752
0.36500007 0.075000063 1.0150001 10522752
0.36500007 0.075000063 1.0250001 8425600
0.36500007 0.08500006 1.0150001 9465952
0.36500007 0.08500006 1.0250001 9470064
0.35500005 0.095000058 0.99500006 7377008
0.36500007 0.095000058 1.0050001 5279840
0.34500006 0.075000063 1.0450001 5279840
0.34500006 0.08500006 1.0350001 6324320
0.35500005 0.075000063 1.0450001 7377008
0.35500005 0.08500006 1.0350001 9470048
0.35500005 0.08500006 1.0450001 8421472
0.36500007 0.075000063 1.0350001 7377008
0.35500005 0.075000063 1.0550001 6328416
0.36500007 0.045000061 1.115 9486480
0.75500005 -0.0049999403 1.825 9465936
0.75500005 0.0050000595 1.8150001 10518624
0.75500005 0.0050000595 1.825 11567216
0.76500005 -0.0049999403 1.8150001 7360560
0.76500005 -0.0049999403 1.825 7356464
0.76500005 0.0050000595 1.8150001 9465936
0.75500005 0.015000059 1.825 10518624
0.75500005 0.02500006 1.825 4210736
0.76500005 0.015000059 1.8150001 10518640
0.76500005 0.015000059 1.825 10518624
0.76500005 0.02500006 1.825 5259328
0.75500005 0.03500006 1.825 2105376
0.76500005 0.03500006 1.825 2105376
0.77500004 -0.0049999403 1.8150001 6307888
0.77500004 -0.0049999403 1.825 7356464
0.77500004 0.0050000595 1.8150001 9465936
0.78500009 -0.0049999403 1.8150001 7364688
0.78500009 0.0050000595 1.8150001 4206624
0.77500004 0.015000059 1.8150001 8417360
0.77500004 0.02500006 1.8150001 4206640
0.78500009 0.015000059 1.8150001 2105360
0.78500009 0.02500006 1.8150001 1052688
0.79500008 -0.0049999403 1.825 1052672
0.79500008 0.0050000595 1.8150001 1052688
0.79500008 0.0050000595 1.825 1052672
0.80500007 0.0050000595 1.8150001 1052672
0.80500007 0.0050000595 1.825 1052672
0.79500008 0.015000059 1.8150001 1052672
0.79500008 0.02500006 1.825 1056784
0.80500007 0.015000059 1.825 1052688
0.80500007 0.02500006 1.825 1056784
0.77500004 0.03500006 1.825 2105376
0.78500009 0.03500006 1.825 2105376
0.79500008 0.03500006 1.825 2105376
0.74500006 -0.0049999403 1.835 2101264
0.74500006 0.02500006 1.845 6316128
0.75500005 -0.0049999403 1.835 10514528
0.75500005 0.0050000595 1.835 12619904
0.75500005 0.015000059 1.835 10518640
0.75500005 0.015000059 1.845 8417392
0.75500005 0.02500006 1.835 5263440
0.74500006 0.03500006 1.835 6312016
0.74500006 0.03500006 1.845 7364688
0.74500006 0.03500006 1.855 7364688
0.74500006 0.03500006 1.865 6312000
0.74500006 0.045000061 1.855 7360576
0.74500006 0.045000061 1.865 7360560
0.75500005 0.03500006 1.835 3158064
0.75500005 0.045000061 1.835 4206640
0.75500005 0.045000061 1.845 5259312
0.76500005 0.045000061 1.835 3158064
0.76500005 0.045000061 1.845 3158064
0.75500005 0.045000061 1.855 7360560
0.76500005 0.055000059 1.845 6307888
0.75500005 0.055000059 1.855 7360560
0.75500005 0.055000059 1.865 8409136
0.76500005 0.055000059 1.855 7356464
0.76500005 0.055000059 1.865 8409136
0.74500006 0.03500006 1.875 7364688
0.74500006 0.03500006 1.8850001 8413264
0.74500006 0.045000061 1.875 7364672
0.74500006 0.045000061 1.8850001 8417360
0.74500006 0.03500006 1.8950001 9465952
0.74500006 0.045000061 1.9050001 9465952
0.75500005 0.045000061 1.875 7360560
0.75500005 0.045000061 1.8850001 7360560
0.75500005 0.045000061 1.8950001 7364672
0.75500005 0.055000059 1.8850001 8413248
0.76500005 0.055000059 1.875 8409136
0.76500005 0.055000059 1.8850001 8409136
0.76500005 0.065000057 1.875 9461824
0.76500005 0.065000057 1.8850001 10514512
0.75500005 0.055000059 1.8950001 8413248
0.75500005 0.055000059 1.9050001 8413248
0.76500005 0.065000057 1.8950001 11567200
0.76500005 0.065000057 1.9050001 11567200
0.80500007 0.02500006 1.835 1056784
0.77500004 0.045000061 1.835 2109488
0.77500004 0.045000061 1.845 2109488
0.78500009 0.03500006 1.835 2105376
0.78500009 0.045000061 1.835 2105392
0.78500009 0.045000061 1.845 2109488
0.78500009 0.055000059 1.845 2109488
0.77500004 0.055000059 1.855 5259328
0.77500004 0.055000059 1.865 6312000
0.77500004 0.065000057 1.865 10514512
0.78500009 0.055000059 1.855 2109488
0.78500009 0.055000059 1.865 3158064
0.78500009 0.065000057 1.865 4206640
0.79500008 0.03500006 1.835 2105376
0.79500008 0.045000061 1.835 2105376
0.79500008 0.045000061 1.845 2105376
0.80500007 0.03500006 1.835 2105376
0.80500007 0.03500006 1.845 2105376
0.80500007 0.045000061 1.845 1056800
0.80500007 0.045000061 1.855 2105376
0.79500008 0.055000059 1.855 2109488
0.79500008 0.065000057 1.865 2109488
0.80500007 0.055000059 1.855 2105376
0.80500007 0.055000059 1.865 2105392
0.80500007 0.065000057 1.865 2109488
0.77500004 0.065000057 1.875 10514512
0.77500004 0.065000057 1.8850001 11567200
0.78500009 0.065000057 1.875 7364688
0.77500004 0.065000057 1.8950001 11567200
0.79500008 0.065000057 1.875 2105376
0.80500007 0.065000057 1.875 2109488
0.80500007 0.065000057 1.8850001 2109488
0.77500004 0.075000063 1.8850001 12619888
0.78500009 0.075000063 1.8850001 10518640
0.77500004 0.075000063 1.8950001 12619904
0.77500004 0.075000063 1.9050001 12624000
0.78500009 0.075000063 1.8950001 11571312
0.78500009 0.075000063 1.9050001 12619904
0.79500008 0.075000063 1.8850001 4210752
0.80500007 0.075000063 1.8850001 2105392
0.79500008 0.075000063 1.8950001 6316112
0.80500007 0.075000063 1.8950001 3162176
0.80500007 0.08500006 1.9050001 3158080
0.96500003 0.0050000595 1.6450001 8413248
0.95500004 -0.0049999403 1.6650001 11575424
0.96500003 -0.0049999403 1.6550001 9465936
0.96500003 -0.0049999403 1.6650001 10518640
0.96500003 0.0050000595 1.6550001 10518624
0.96500003 0.0050000595 1.6650001 11571312
0.96500003 0.015000059 1.6450001 8413248
0.96500003 0.015000059 1.6550001 10518624
0.96500003 0.015000059 1.6650001 11571328
0.96500003 0.02500006 1.6650001 9465936
0.95500004 -0.0049999403 1.6750001 12628112
0.95500004 -0.0049999403 1.6850001 13680816
0.96500003 -0.0049999403 1.6750001 10522736
0.96500003 -0.0049999403 1.6850001 11571328
0.96500003 0.0050000595 1.6750001 11575408
0.96500003 0.0050000595 1.6850001 11575424
0.95500004 -0.0049999403 1.6950001 12628112
0.96500003 -0.0049999403 1.6950001 10522736
0.96500003 -0.0049999403 1.705 10522736
0.96500003 0.0050000595 1.6950001 11575424
0.96500003 0.0050000595 1.705 11571328
0.96500003 0.015000059 1.6750001 12624000
0.96500003 0.015000059 1.6850001 12624000
0.96500003 0.015000059 1.6950001 12624000
0.96500003 0.015000059 1.705 12624000
0.96500003 -0.0049999403 1.715 11575440
0.96500003 -0.0049999403 1.725 1048576
0.96500003 0.0050000595 1.715 5263408
0.96500003 0.015000059 1.715 7364688
0.96500003 0.055000059 1.6950001 7381088
0.96500003 0.065000057 1.705 2109472
0.81500006 0.0050000595 1.825 1052672
0.81500006 0.015000059 1.825 1052688
0.81500006 0.0050000595 1.835 4096
0.82500005 0.0050000595 1.835 1052672
0.82500005 0.0050000595 1.845 1052672
0.81500006 0.015000059 1.835 1052688
0.81500006 0.02500006 1.835 1052688
0.81500006 0.02500006 1.845 1056784
0.82500005 0.015000059 1.845 1052672
0.82500005 0.02500006 1.845 1052688
0.82500005 0.015000059 1.855 4096
0.82500005 0.02500006 1.865 1056784
0.83500004 0.0050000595 1.865 0
0.83500004 0.015000059 1.865 4096
0.83500004 0.02500006 1.865 1052688
0.84500009 0.015000059 1.875 1052672
0.84500009 0.02500006 1.8850001 1052688
0.81500006 0.03500006 1.845 2105376
0.81500006 0.03500006 1.855 1056784
0.81500006 0.045000061 1.855 2105376
0.81500006 0.045000061 1.865 1056800
0.82500005 0.03500006 1.855 2105360
0.81500006 0.055000059 1.865 2105376
0.82500005 0.03500006 1.875 1056784
0.82500005 0.045000061 1.875 1056800
0.81500006 0.065000057 1.875 2105376
0.81500006 0.065000057 1.8850001 2105376
0.82500005 0.055000059 1.875 1056800
0.82500005 0.055000059 1.8850001 1056800
0.82500005 0.065000057 1.8850001 2105376
0.82500005 0.065000057 1.8950001 2105376
0.83500004 0.03500006 1.875 1056784
0.83500004 0.045000061 1.8850001 1056784
0.84500009 0.03500006 1.8850001 1056784
0.84500009 0.03500006 1.8950001 1052688
0.84500009 0.045000061 1.8950001 1052688
0.83500004 0.055000059 1.8950001 1056784
0.83500004 0.065000057 1.8950001 1056784
0.83500004 0.065000057 1.9050001 1052688
0.84500009 0.055000059 1.9050001 1052688
0.84500009 0.065000057 1.9050001 1052688
0.85500008 0.0050000595 1.8850001 0
0.86500007 0.0050000595 1.9050001 0
0.85500008 0.015000059 1.8850001 1052672
0.85500008 0.015000059 1.8950001 1052688
0.85500008 0.02500006 1.8950001 1052688
0.86500007 0.015000059 1.9050001 1052672
0.86500007 0.02500006 1.8950001 1052672
0.86500007 0.02500006 1.9050001 1052672
0.87500006 0.0050000595 1.9050001 0
0.88500005 0.0050000595 1.9050001 0
0.87500006 0.015000059 1.9050001 1052672
0.87500006 0.02500006 1.9050001 1052672
0.88500005 0.015000059 1.9050001 1052672
0.88500005 0.02500006 1.9050001 1052672
0.85500008 0.03500006 1.8950001 1052688
0.85500008 0.03500006 1.9050001 1052688
0.85500008 0.045000061 1.9050001 1052688
0.86500007 0.03500006 1.9050001 1052672
0.86500007 0.045000061 1.9050001 1052672
0.85500008 0.055000059 1.9050001 1052688
0.85500008 0.065000057 1.9050001 1052688
0.87500006 0.03500006 1.9050001 1052672
0.87500006 0.045000061 1.9050001 1052672
0.88500005 0.03500006 1.9050001 1052672
0.81500006 0.075000063 1.8950001 2105376
0.81500006 0.075000063 1.9050001 2105376
0.81500006 0.08500006 1.9050001 3158080
0.82500005 0.075000063 1.8950001 2105376
0.82500005 0.075000063 1.9050001 2105376
0.82500005 0.08500006 1.9050001 2109488
0.83500004 0.075000063 1.9050001 1052688
0.84500009 0.075000063 1.9050001 1052688
0.88500005 0.08500006 1.9050001 5255184
0.87500006 0.095000058 1.9050001 7364656
0.88500005 0.095000058 1.8950001 9465936
0.88500005 0.095000058 1.9050001 7360560
0.88500005 0.10500006 1.9050001 10518624
0.88500005 0.11500006 1.9050001 10518624
0.88500005 0.12500006 1.9050001 6312000
0.88500005 0.13500006 1.8950001 3158048
0.88500005 0.13500006 1.9050001 1052688
0.96500003 0.065000057 1.8050001 5259296
0.95500004 0.065000057 1.8150001 5259296
0.95500004 0.065000057 1.825 4206624
0.96500003 0.055000059 1.8150001 5259296
0.96500003 0.055000059 1.825 4206624
0.96500003 0.065000057 1.8150001 5259296
0.96500003 0.065000057 1.825 5259296
0.89500004 0.0050000595 1.9050001 0
0.89500004 0.015000059 1.9050001 1052672
0.89500004 0.065000057 1.9050001 5255200
0.90500003 0.055000059 1.9050001 4206624
0.90500003 0.065000057 1.8950001 5255200
0.90500003 0.065000057 1.9050001 5255200
0.91500008 0.045000061 1.9050001 4206608
0.92500007 0.045000061 1.9050001 4202512
0.92500007 0.065000057 1.8850001 5255200
0.91500008 0.055000059 1.9050001 5255200
0.91500008 0.065000057 1.8950001 5255200
0.92500007 0.055000059 1.8950001 4206608
0.92500007 0.065000057 1.8950001 5255200
0.95500004 0.065000057 1.835 4206624
0.95500004 0.065000057 1.845 3158032
0.96500003 0.055000059 1.835 3158032
0.95500004 0.065000057 1.865 3153936
0.93500006 0.045000061 1.9050001 3153936
0.94500005 0.045000061 1.9050001 4206608
0.93500006 0.055000059 1.8850001 4206624
0.93500006 0.065000057 1.875 4206624
0.93500006 0.065000057 1.8850001 5255200
0.94500005 0.055000059 1.8850001 4206608
0.94500005 0.065000057 1.875 4206608
0.93500006 0.055000059 1.8950001 4206608
0.94500005 0.055000059 1.8950001 4206608
0.95500004 0.055000059 1.8850001 3158032
0.95500004 0.065000057 1.875 3153936
0.95500004 0.065000057 1.8850001 4206608
0.96500003 0.065000057 1.875 3153936
0.96500003 0.065000057 1.8850001 3153936
0.95500004 0.055000059 1.8950001 4206608
0.96500003 0.055000059 1.9050001 3153936
0.92500007 0.08500006 1.825 6311984
0.92500007 0.095000058 1.8150001 7364672
0.92500007 0.095000058 1.825 7364688
0.92500007 0.10500006 1.8150001 8417360
0.92500007 0.10500006 1.825 8417376
0.92500007 0.11500006 1.8150001 9465952
0.92500007 0.11500006 1.825 9465952
0.92500007 0.12500006 1.8150001 9465952
0.92500007 0.12500006 1.825 9465952
0.91500008 0.14500006 1.825 6307872
0.92500007 0.13500006 1.8150001 8417360
0.92500007 0.13500006 1.825 7360576
0.92500007 0.14500006 1.8150001 7360576
0.92500007 0.14500006 1.825 6311984
0.95500004 0.10500006 1.7850001 7360560
0.96500003 0.10500006 1.7850001 7360560
0.93500006 0.075000063 1.825 5259296
0.93500006 0.08500006 1.8150001 6307872
0.93500006 0.08500006 1.825 6307888
0.94500005 0.075000063 1.825 5255200
0.94500005 0.08500006 1.8150001 5259296
0.94500005 0.08500006 1.825 5259296
0.93500006 0.095000058 1.8050001 6311984
0.93500006 0.10500006 1.8050001 7364672
0.94500005 0.095000058 1.8050001 6311984
0.94500005 0.10500006 1.7950001 7360560
0.94500005 0.10500006 1.8050001 7360560
0.93500006 0.095000058 1.8150001 6311984
0.93500006 0.095000058 1.825 7360576
0.93500006 0.10500006 1.8150001 7364672
0.95500004 0.075000063 1.8050001 5259296
0.95500004 0.08500006 1.8050001 6307888
0.96500003 0.075000063 1.8050001 6307872
0.96500003 0.08500006 1.7950001 6311984
0.96500003 0.08500006 1.8050001 6311984
0.95500004 0.075000063 1.8150001 5259296
0.95500004 0.075000063 1.825 5255200
0.95500004 0.08500006 1.8150001 6307888
0.95500004 0.095000058 1.7950001 7360560
0.95500004 0.095000058 1.8050001 7360560
0.95500004 0.10500006 1.7950001 7360560
0.96500003 0.095000058 1.7950001 7360560
0.96500003 0.10500006 1.7950001 7360560
0.94500005 0.14500006 1.7850001 8413248
0.95500004 0.11500006 1.7850001 7360560
0.95500004 0.12500006 1.7850001 8413248
0.96500003 0.11500006 1.7850001 7360560
0.96500003 0.12500006 1.7750001 8413248
0.95500004 0.13500006 1.7850001 9465936
0.95500004 0.14500006 1.7850001 8413248
0.96500003 0.13500006 1.7750001 9461824
0.96500003 0.13500006 1.7850001 9461840
0.96500003 0.14500006 1.7750001 7360560
0.96500003 0.14500006 1.7850001 7360576
0.93500006 0.11500006 1.8050001 8413248
0.93500006 0.12500006 1.8050001 8413264
0.94500005 0.11500006 1.7950001 8413248
0.94500005 0.11500006 1.8050001 8413248
0.94500005 0.12500006 1.7950001 8413248
0.94500005 0.12500006 1.8050001 8413248
0.93500006 0.11500006 1.8150001 8413264
0.93500006 0.12500006 1.8150001 8417360
0.93500006 0.13500006 1.7950001 8413248
0.93500006 0.13500006 1.8050001 8417360
0.93500006 0.14500006 1.7950001 7364672
0.93500006 0.14500006 1.8050001 8413248
0.94500005 0.13500006 1.7950001 8413248
0.94500005 0.14500006 1.7950001 8413248
0.93500006 0.13500006 1.8150001 8417360
0.93500006 0.14500006 1.8150001 8413248
0.95500004 0.11500006 1.7950001 7360560
0.95500004 0.12500006 1.7950001 8413248
0.95500004 0.13500006 1.7950001 8413248
0.92500007 0.08500006 1.835 6312000
0.92500007 0.08500006 1.845 6312000
0.92500007 0.08500006 1.855 7364688
0.92500007 0.08500006 1.865 4206624
0.91500008 0.10500006 1.835 9465952
0.92500007 0.095000058 1.835 7364688
0.92500007 0.095000058 1.845 8417376
0.92500007 0.10500006 1.835 9465952
0.92500007 0.10500006 1.845 9465952
0.91500008 0.10500006 1.865 6307888
0.92500007 0.095000058 1.855 8417360
0.92500007 0.095000058 1.865 6311984
0.92500007 0.10500006 1.855 8417376
0.92500007 0.10500006 1.865 7360576
0.90500003 0.08500006 1.8850001 5255200
0.89500004 0.075000063 1.8950001 5259296
0.89500004 0.075000063 1.9050001 5255200
0.89500004 0.08500006 1.8950001 5259296
0.89500004 0.08500006 1.9050001 5259296
0.90500003 0.075000063 1.8950001 5255200
0.90500003 0.08500006 1.8950001 5259296
0.89500004 0.10500006 1.8850001 9465936
0.90500003 0.095000058 1.875 5259296
0.90500003 0.095000058 1.8850001 6307872
0.90500003 0.10500006 1.875 7360560
0.90500003 0.10500006 1.8850001 7364672
0.89500004 0.095000058 1.8950001 7364656
0.89500004 0.10500006 1.8950001 9465936
0.91500008 0.075000063 1.8850001 5255200
0.91500008 0.08500006 1.8850001 5255200
0.92500007 0.075000063 1.875 4206624
0.92500007 0.075000063 1.8850001 4206608
0.92500007 0.08500006 1.875 4206608
0.91500008 0.075000063 1.8950001 5255200
0.91500008 0.095000058 1.875 5255200
0.91500008 0.10500006 1.875 6307872
0.92500007 0.095000058 1.875 5259296
0.90500003 0.11500006 1.865 8413248
0.90500003 0.14500006 1.835 7356464
0.90500003 0.14500006 1.845 6307888
0.89500004 0.13500006 1.865 1052672
0.89500004 0.14500006 1.855 1052672
0.89500004 0.14500006 1.865 1052672
0.90500003 0.13500006 1.855 5259312
0.90500003 0.13500006 1.865 5259312
0.90500003 0.14500006 1.855 5259312
0.91500008 0.11500006 1.835 9465952
0.91500008 0.11500006 1.845 8417360
0.91500008 0.12500006 1.845 7364688
0.92500007 0.11500006 1.835 9470064
0.92500007 0.11500006 1.845 9465952
0.92500007 0.12500006 1.835 8417376
0.92500007 0.12500006 1.845 9465952
0.91500008 0.11500006 1.855 7360576
0.91500008 0.11500006 1.865 7360576
0.91500008 0.12500006 1.855 7360576
0.91500008 0.12500006 1.865 7364688
0.92500007 0.11500006 1.855 8417360
0.91500008 0.13500006 1.835 7360576
0.91500008 0.13500006 1.845 6307888
0.91500008 0.14500006 1.835 7360560
0.91500008 0.14500006 1.845 7356464
0.92500007 0.13500006 1.835 7360576
0.91500008 0.13500006 1.855 6307888
0.89500004 0.11500006 1.8850001 9470048
0.89500004 0.12500006 1.8850001 6311984
0.90500003 0.11500006 1.875 8417360
0.90500003 0.11500006 1.8850001 8417360
0.90500003 0.12500006 1.875 7364688
0.90500003 0.12500006 1.8850001 7364688
0.89500004 0.11500006 1.8950001 10518624
0.89500004 0.12500006 1.8950001 7364688
0.89500004 0.13500006 1.875 1052672
0.89500004 0.13500006 1.8850001 2101248
0.89500004 0.14500006 1.875 1052672
0.90500003 0.14500006 1.8850001 1052672
0.89500004 0.13500006 1.8950001 2101264
0.93500006 0.075000063 1.835 4206624
0.93500006 0.075000063 1.845 4210720
0.93500006 0.08500006 1.835 6307888
0.94500005 0.075000063 1.835 4206624
0.93500006 0.075000063 1.855 4206624
0.93500006 0.075000063 1.865 4206624
0.93500006 0.08500006 1.855 6312000
0.93500006 0.08500006 1.865 6312000
0.94500005 0.075000063 1.855 4206624
0.94500005 0.075000063 1.865 4206624
0.93500006 0.075000063 1.875 4206624
0.93500006 0.08500006 1.875 4206624
0.94500005 0.075000063 1.875 4206608
0.85500008 0.21500006 1.705 2105360
0.87500006 0.22500005 1.725 1056784
0.88500005 0.21500006 1.735 1056784
0.88500005 0.21500006 1.745 1052672
0.88500005 0.22500005 1.735 1056784
0.87500006 0.23500006 1.745 2105360
0.90500003 0.20500006 1.735 1052672
0.90500003 0.20500006 1.745 1052672
0.89500004 0.21500006 1.745 1052672
0.90500003 0.21500006 1.735 1052672
0.90500003 0.21500006 1.745 1052672
0.91500008 0.20500006 1.735 2105360
0.91500008 0.20500006 1.745 2105360
0.92500007 0.19500005 1.745 1052672
0.92500007 0.20500006 1.745 1056768
0.91500008 0.21500006 1.745 1052672
0.92500007 0.21500006 1.745 0
0.93500006 0.22500005 1.705 2105360
0.96500003 0.21500006 1.6850001 1052672
0.93500006 0.19500005 1.745 1052672
0.93500006 0.20500006 1.745 2105360
0.93500006 0.22500005 1.715 2105360
0.94500005 0.22500005 1.715 2105360
0.94500005 0.21500006 1.745 2105344
0.94500005 0.22500005 1.735 2105360
0.95500004 0.22500005 1.725 2105360
0.95500004 0.21500006 1.735 2105360
0.95500004 0.22500005 1.745 1052688
0.96500003 0.21500006 1.735 2105344
0.96500003 0.22500005 1.735 2105360
0.96500003 0.22500005 1.745 2105360
0.93500006 0.24500006 1.705 3158048
0.93500006 0.25500005 1.705 4210736
0.95500004 0.24500006 1.705 3158048
0.96500003 0.23500006 1.6950001 2105344
0.93500006 0.24500006 1.715 3158048
0.94500005 0.24500006 1.725 3158048
0.94500005 0.25500005 1.715 3158048
0.94500005 0.26500005 1.735 3158048
0.96500003 0.24500006 1.725 2105360
0.95500004 0.24500006 1.735 2105360
0.96500003 0.23500006 1.735 3158048
0.96500003 0.23500006 1.745 3158048
0.96500003 0.24500006 1.735 3158048
0.95500004 0.25500005 1.725 3158048
0.96500003 0.25500005 1.715 3158032
0.96500003 0.25500005 1.725 3158048
0.95500004 0.25500005 1.735 4210720
0.96500003 0.25500005 1.745 3158048
0.86500007 0.17500006 1.8050001 1056784
0.86500007 0.18500006 1.825 1056784
0.88500005 0.18500006 1.8050001 1056768
0.87500006 0.17500006 1.8150001 1052688
0.87500006 0.17500006 1.825 1052672
0.87500006 0.18500006 1.825 2105360
0.88500005 0.17500006 1.825 1052672
0.88500005 0.18500006 1.8150001 1052672
0.88500005 0.18500006 1.825 1052672
0.87500006 0.19500005 1.7650001 1052672
0.88500005 0.19500005 1.7650001 1052688
0.88500005 0.19500005 1.7750001 1052672
0.88500005 0.20500006 1.7750001 1052672
0.88500005 0.21500006 1.7550001 1052672
0.88500005 0.21500006 1.7650001 2105360
0.88500005 0.22500005 1.7650001 2105360
0.87500006 0.21500006 1.7850001 2105360
0.87500006 0.22500005 1.7850001 2105360
0.88500005 0.21500006 1.7750001 1052672
0.88500005 0.22500005 1.7750001 2105360
0.88500005 0.22500005 1.7850001 2105360
0.86500007 0.21500006 1.7950001 2105360
0.87500006 0.20500006 1.7950001 1052672
0.88500005 0.19500005 1.8050001 1052672
0.88500005 0.20500006 1.8050001 1052672
0.87500006 0.19500005 1.825 1052672
0.87500006 0.20500006 1.8150001 1052688
0.88500005 0.19500005 1.8150001 1052672
0.88500005 0.19500005 1.825 1052672
0.88500005 0.20500006 1.8150001 1052672
0.88500005 0.20500006 1.825 1052672
0.87500006 0.21500006 1.7950001 2105360
0.87500006 0.21500006 1.8050001 2105360
0.87500006 0.22500005 1.7950001 2105360
0.87500006 0.22500005 1.8050001 2105360
0.88500005 0.21500006 1.7950001 1052672
0.88500005 0.21500006 1.8050001 1056768
0.88500005 0.22500005 1.7950001 2105360
0.87500006 0.21500006 1.8150001 2105360
0.87500006 0.21500006 1.825 2105360
0.88500005 0.21500006 1.8150001 2105360
0.88500005 0.22500005 1.8150001 2105360
0.88500005 0.22500005 1.825 2105360
0.88500005 0.18500006 1.835 2105360
0.87500006 0.18500006 1.855 2105360
0.86500007 0.20500006 1.835 2105360
0.86500007 0.20500006 1.845 1056784
0.86500007 0.20500006 1.855 1052672
0.86500007 0.21500006 1.835 2105360
0.86500007 0.21500006 1.845 2105360
0.86500007 0.22500005 1.845 2109456
0.86500007 0.21500006 1.855 2105360
0.87500006 0.19500005 1.835 1056784
0.87500006 0.19500005 1.845 1056784
0.87500006 0.20500006 1.835 1052672
0.88500005 0.19500005 1.835 1056784
0.88500005 0.20500006 1.835 1052672
0.88500005 0.20500006 1.845 1056784
0.87500006 0.19500005 1.855 2105360
0.87500006 0.19500005 1.865 2105360
0.88500005 0.20500006 1.855 2105360
0.87500006 0.21500006 1.835 2105360
0.87500006 0.21500006 1.845 2105360
0.87500006 0.22500005 1.835 2105360
0.87500006 0.22500005 1.845 2105360
0.88500005 0.22500005 1.835 2105360
0.88500005 0.22500005 1.845 2109456
0.87500006 0.22500005 1.865 2105360
0.88500005 0.22500005 1.865 2109472
0.88500005 0.23500006 1.7850001 2105360
0.88500005 0.23500006 1.835 2109456
0.88500005 0.23500006 1.845 3158048
0.90500003 0.18500006 1.7550001 1052672
0.92500007 0.18500006 1.7650001 1052672
0.91500008 0.17500006 1.7850001 1052672
0.91500008 0.18500006 1.7750001 1052672
0.91500008 0.18500006 1.7850001 1052672
0.92500007 0.17500006 1.7750001 1052672
0.92500007 0.17500006 1.7850001 1052672
0.92500007 0.18500006 1.7750001 1052672
0.92500007 0.18500006 1.7850001 1052672
0.90500003 0.18500006 1.7950001 1052672
0.90500003 0.18500006 1.8050001 1052672
0.89500004 0.17500006 1.825 5255200
0.89500004 0.18500006 1.8150001 3153936
0.89500004 0.18500006 1.825 6312000
0.90500003 0.17500006 1.825 6307872
0.90500003 0.18500006 1.8150001 4202512
0.90500003 0.18500006 1.825 6307888
0.92500007 0.15500006 1.8050001 6307888
0.92500007 0.16500007 1.7950001 2105360
0.92500007 0.16500007 1.8050001 4206624
0.92500007 0.15500006 1.8150001 6311984
0.92500007 0.15500006 1.825 6311984
0.92500007 0.16500007 1.8150001 5259296
0.92500007 0.16500007 1.825 6307872
0.91500008 0.17500006 1.7950001 1052672
0.91500008 0.17500006 1.8050001 2101248
0.91500008 0.18500006 1.7950001 1052672
0.91500008 0.17500006 1.8150001 4202512
0.91500008 0.17500006 1.825 5255200
0.91500008 0.18500006 1.8150001 2101248
0.91500008 0.18500006 1.825 5255200
0.92500007 0.17500006 1.825 6307872
0.89500004 0.19500005 1.7650001 1052672
0.89500004 0.20500006 1.7550001 1052672
0.89500004 0.20500006 1.7650001 1052672
0.90500003 0.19500005 1.7650001 1052672
0.90500003 0.20500006 1.7550001 1052672
0.90500003 0.20500006 1.7650001 1052672
0.89500004 0.20500006 1.7750001 1052672
0.90500003 0.20500006 1.7750001 1052672
0.89500004 0.21500006 1.7550001 1056784
0.89500004 0.21500006 1.7650001 1052672
0.89500004 0.22500005 1.7650001 1056784
0.90500003 0.21500006 1.7550001 1056784
0.90500003 0.22500005 1.7550001 2105360
0.90500003 0.22500005 1.7650001 1056768
0.89500004 0.21500006 1.7750001 1052672
0.89500004 0.21500006 1.7850001 1052672
0.91500008 0.19500005 1.7550001 1052672
0.91500008 0.19500005 1.7650001 1052672
0.91500008 0.20500006 1.7550001 1052672
0.91500008 0.20500006 1.7650001 1052672
0.92500007 0.19500005 1.7550001 1052672
0.92500007 0.19500005 1.7650001 1052672
0.91500008 0.19500005 1.7750001 1052672
0.91500008 0.19500005 1.7850001 1052672
0.91500008 0.20500006 1.7850001 1052672
0.92500007 0.19500005 1.7750001 1052672
0.91500008 0.21500006 1.7550001 1052672
0.91500008 0.22500005 1.7650001 1056784
0.91500008 0.22500005 1.7750001 2105360
0.92500007 0.22500005 1.7750001 1052672
0.89500004 0.19500005 1.7950001 1052672
