# .PCD v0.7 - Point Cloud Data file format
VERSION 0.7
FIELDS x y z rgba
SIZE 4 4 4 4
TYPE F F F U
COUNT 1 1 1 1
WIDTH 1343
HEIGHT 1
VIEWPOINT 0 0 0 1 0 0 0
POINTS 1343
DATA ascii
1.0150001 0.065000057 1.965 1052672
1.0250001 0.065000057 1.965 3158032
1.0150001 0.055000059 1.975 2105360
1.0150001 0.055000059 1.985 3158048
1.0150001 0.065000057 1.975 3158048
1.0250001 0.055000059 1.975 4210736
1.0250001 0.055000059 1.985 4210736
1.0250001 0.065000057 1.975 5263408
1.0350001 0.055000059 1.965 13689040
1.0350001 0.055000059 1.975 3162144
1.0350001 0.065000057 1.975 4210736
1.0350001 0.065000057 1.985 4210736
1.0450001 0.055000059 1.975 7368816
1.0450001 0.065000057 1.975 5263424
0.99500006 0.08500006 1.9150001 1052672
1.0450001 0.075000063 1.965 3158048
1.0550001 0.02500006 1.9150001 4214848
1.0550001 0.02500006 1.9250001 3162160
1.0650001 0.02500006 1.9450001 4210752
1.0650001 0.02500006 1.955 4210736
1.0650001 0.02500006 1.965 13689040
1.075 0.02500006 1.975 3158064
1.0550001 0.03500006 1.955 6316128
1.0550001 0.03500006 1.965 14741728
1.0550001 0.045000061 1.955 3162176
1.0550001 0.045000061 1.965 3162160
1.0650001 0.03500006 1.965 9478288
1.0650001 0.045000061 1.965 3158064
1.0550001 0.045000061 1.975 3158064
1.0550001 0.055000059 1.965 3162160
1.0550001 0.065000057 1.965 3162160
1.0650001 0.055000059 1.955 3162160
1.0650001 0.055000059 1.965 3158064
1.0550001 0.055000059 1.975 3162160
1.0550001 0.065000057 1.975 3162160
1.075 0.03500006 1.955 3162160
1.075 0.03500006 1.965 3162160
1.075 0.045000061 1.975 3158064
1.075 0.055000059 1.965 3158048
0.015000059 0.44500005 3.2350001 14741744
0.015000059 0.45500007 3.2350001 14737632
0.015000059 0.46500006 3.2350001 13689056
0.02500006 0.45500007 3.2550001 15790320
0.02500006 0.46500006 3.2550001 14737632
0.015000059 0.47500005 3.2450001 12636368
0.015000059 0.48500007 3.2450001 13689056
0.02500006 0.47500005 3.2550001 14737632
0.02500006 0.48500007 3.2550001 12636368
0.015000059 0.49500006 3.2450001 15790320
0.015000059 0.50500005 3.2450001 13684944
0.015000059 0.50500005 3.2550001 13689040
0.02500006 0.49500006 3.2550001 14741744
0.02500006 0.50500005 3.2550001 14737632
0.03500006 0.47500005 3.2650001 14737632
0.03500006 0.48500007 3.2650001 14737632
0.03500006 0.49500006 3.2550001 12632256
0.03500006 0.50500005 3.2650001 14741744
0.015000059 0.52500004 3.2650001 13689056
0.02500006 0.51500005 3.2650001 13684944
0.015000059 0.53500009 3.2650001 13689056
0.045000061 0.47500005 3.2750001 15790320
0.045000061 0.48500007 3.2750001 14737632
0.045000061 0.49500006 3.2750001 12636368
0.045000061 0.50500005 3.2750001 12636368
0.02500006 0.52500004 3.2750001 13689056
0.015000059 0.54500008 3.2750001 13689056
0.02500006 0.53500009 3.2750001 13684944
0.02500006 0.54500008 3.2850001 13689056
0.03500006 0.51500005 3.2750001 13684944
0.03500006 0.52500004 3.2850001 13684944
0.045000061 0.51500005 3.2850001 14737632
0.045000061 0.52500004 3.2950001 13689056
0.03500006 0.53500009 3.2850001 13689056
0.03500006 0.54500008 3.2850001 13689056
0.045000061 0.53500009 3.2950001 13684944
0.045000061 0.54500008 3.2950001 13689056
0.055000059 0.48500007 3.2950001 15790320
0.055000059 0.49500006 3.2850001 14741744
0.055000059 0.50500005 3.2850001 12632256
0.065000057 0.50500005 3.2950001 14741744
0.055000059 0.51500005 3.2850001 13689056
0.055000059 0.52500004 3.2950001 13689056
0.065000057 0.51500005 3.2950001 12632256
0.065000057 0.52500004 3.2950001 13689056
0.055000059 0.53500009 3.2950001 13689040
0.055000059 0.54500008 3.3050001 13684944
0.065000057 0.53500009 3.3050001 13689056
0.075000063 0.52500004 3.3050001 12632256
0.065000057 0.54500008 3.3150001 13684944
0.075000063 0.51500005 3.3150001 14741728
0.075000063 0.53500009 3.3150001 14741744
0.075000063 0.54500008 3.325 13684944
0.08500006 0.53500009 3.325 13684944
0.015000059 0.55500007 3.2750001 13689056
0.015000059 0.55500007 3.2850001 13689056
0.015000059 0.56500006 3.2850001 13684944
0.02500006 0.55500007 3.2850001 13684944
0.02500006 0.56500006 3.2950001 13689040
0.015000059 0.57500005 3.2950001 13689056
0.015000059 0.58500004 3.3050001 13684944
0.02500006 0.57500005 3.2950001 13689056
0.02500006 0.58500004 3.3050001 13689056
0.03500006 0.55500007 3.2950001 13684944
0.03500006 0.56500006 3.2950001 13689056
0.045000061 0.55500007 3.2950001 13684944
0.045000061 0.56500006 3.2950001 14737632
0.03500006 0.57500005 3.2950001 13689056
0.03500006 0.58500004 3.3050001 13689056
0.045000061 0.57500005 3.2950001 13689056
0.045000061 0.58500004 3.3150001 13684944
0.015000059 0.59500009 3.3050001 14737632
0.015000059 0.60500008 3.3050001 14737632
0.02500006 0.59500009 3.3050001 13689056
0.015000059 0.62500006 3.3050001 14737632
0.02500006 0.60500008 3.3150001 14737632
0.015000059 0.61500007 3.3150001 14737632
0.02500006 0.61500007 3.3150001 14737632
0.02500006 0.62500006 3.325 14737632
0.03500006 0.59500009 3.3150001 13689056
0.03500006 0.60500008 3.3150001 13684944
0.045000061 0.59500009 3.325 13684944
0.045000061 0.60500008 3.325 13689056
0.03500006 0.61500007 3.3150001 13689040
0.03500006 0.62500006 3.325 14737632
0.045000061 0.61500007 3.325 13689056
0.045000061 0.62500006 3.325 13684944
0.055000059 0.56500006 3.3050001 13689056
0.055000059 0.57500005 3.3050001 13684944
0.055000059 0.55500007 3.3150001 13689056
0.065000057 0.55500007 3.3150001 13689056
0.065000057 0.56500006 3.325 13684944
0.055000059 0.58500004 3.325 13684944
0.065000057 0.57500005 3.3150001 12636352
0.065000057 0.58500004 3.325 12636368
0.075000063 0.55500007 3.335 13684944
0.075000063 0.56500006 3.335 12636368
0.08500006 0.55500007 3.335 13689056
0.08500006 0.56500006 3.345 12636368
0.075000063 0.57500005 3.335 12636368
0.075000063 0.58500004 3.335 13684944
0.08500006 0.57500005 3.345 12636352
0.08500006 0.58500004 3.335 14737632
0.055000059 0.59500009 3.335 13684944
0.055000059 0.60500008 3.335 13684944
0.065000057 0.59500009 3.335 13684944
0.065000057 0.60500008 3.335 13684944
0.055000059 0.61500007 3.325 13689040
0.055000059 0.62500006 3.335 13684944
0.075000063 0.59500009 3.335 13684944
0.08500006 0.59500009 3.335 14737632
0.095000058 0.54500008 3.335 13689056
0.10500006 0.54500008 3.345 15790320
0.095000058 0.55500007 3.345 14737632
0.095000058 0.56500006 3.345 13684944
0.10500006 0.56500006 3.345 14741728
0.095000058 0.57500005 3.345 12636352
0.10500006 0.57500005 3.345 14741744
0.10500006 0.55500007 3.355 13684944
0.10500006 0.56500006 3.365 14741728
0.015000059 0.63500005 3.3150001 14737632
0.015000059 0.64500004 3.3150001 14737648
0.02500006 0.63500005 3.325 14737632
0.02500006 0.64500004 3.325 14737632
0.015000059 0.65500003 3.325 14741744
0.03500006 0.63500005 3.325 14737632
0.03500006 0.64500004 3.335 14737632
0.045000061 0.63500005 3.335 13689056
0.045000061 0.64500004 3.335 15790320
0.055000059 0.63500005 3.335 14737632
0.95500004 1.7550001 3.625 7372912
1.1750001 1.575 3.2850001 9474176
1.245 1.6550001 3.575 8425600
1.2650001 1.6550001 3.585 9478288
1.2550001 1.6750001 3.625 6320224
1.1950001 1.735 3.825 6316128
1.2550001 1.705 3.6950002 7368816
1.2550001 1.715 3.7350001 6320224
1.2650001 1.745 3.7250001 9478288
1.2550001 1.745 3.7450001 9478304
1.2650001 1.745 3.7450001 9478304
1.2750001 1.715 3.7250001 7368800
1.2750001 1.735 3.7250001 6320224
1.2750001 1.735 3.7450001 8425600
1.2750001 1.745 3.7450001 9478288
1.2850001 1.745 3.7450001 9478304
1.225 1.725 3.7750001 6320224
1.245 1.735 3.7550001 8425616
1.245 1.745 3.7650001 9478304
1.235 1.735 3.7850001 7372912
1.245 1.735 3.7850001 6320224
1.245 1.745 3.7750001 9478288
1.225 1.745 3.8150001 9478288
1.235 1.745 3.7950001 9478288
1.2550001 1.725 3.7650001 6320224
1.2550001 1.735 3.7550001 7372912
1.2550001 1.745 3.7550001 9478304
1.2650001 1.735 3.7550001 6320224
1.2650001 1.745 3.7550001 9478288
1.2850001 1.7650001 3.7450001 9478304
1.215 1.7550001 3.825 9478288
1.215 1.7650001 3.8150001 9478304
1.225 1.7550001 3.8150001 9478304
1.235 1.7650001 3.8150001 9478288
1.245 1.7550001 3.8150001 9478288
1.2550001 1.7650001 3.7750001 9478288
1.2550001 1.7650001 3.8050001 9478304
0.62500006 1.735 4.4549999 8425616
0.62500006 1.745 4.4549999 10530992
0.63500005 1.735 4.4450002 7372928
0.63500005 1.745 4.4450002 10530976
0.64500004 1.735 4.4349999 9478304
0.64500004 1.745 4.4349999 10530992
0.28500006 1.715 4.7849998 10531008
0.28500006 1.735 4.7750001 10530992
0.29500005 1.715 4.7649999 10530992
0.29500005 1.725 4.7750001 7372928
0.31500006 1.725 4.7649999 10530992
0.32500005 1.725 4.7649999 10530992
0.31500006 1.715 4.7750001 8425616
0.32500005 1.745 4.7649999 10530992
0.28500006 1.7650001 4.7849998 6320224
0.24500006 1.725 4.8250003 8425616
0.24500006 1.735 4.835 7372928
0.26500005 1.725 4.8250003 9478304
0.26500005 1.735 4.8150001 11579568
0.27500007 1.725 4.8049998 11579568
0.28500006 1.715 4.8049998 6320240
0.27500007 1.725 4.8250003 7372928
0.27500007 1.745 4.8049998 7372928
0.28500006 1.745 4.7950001 7368816
0.25500005 1.725 4.855 7372928
0.29500005 1.745 4.7950001 6320224
0.31500006 1.745 4.7950001 6320240
0.30500007 1.735 4.8450003 6320240
0.26500005 1.7850001 4.8250003 6320224
0.27500007 1.7650001 4.7950001 6320224
0.27500007 1.7850001 4.8049998 6320224
0.45500007 1.735 4.625 10530992
0.46500006 1.735 4.625 11583664
0.47500005 1.745 4.605 10530992
0.48500007 1.745 4.605 10530992
0.47500005 1.735 4.6150002 10530992
0.48500007 1.735 4.6150002 9478320
0.40500006 1.735 4.6849999 10530992
0.39500007 1.745 4.7049999 10531008
0.34500006 1.735 4.7449999 10530992
0.34500006 1.745 4.7449999 8425616
0.35500005 1.725 4.7249999 10530992
0.35500005 1.735 4.7350001 10530992
0.33500007 1.725 4.7750001 9478304
0.34500006 1.725 4.7750001 7368816
0.33500007 1.735 4.7550001 10531008
0.36500007 1.725 4.7550001 6320240
0.37500006 1.725 4.7249999 7372928
0.37500006 1.735 4.7249999 10530992
0.38500005 1.735 4.7249999 10535088
0.38500005 1.735 4.7449999 5267552
0.39500007 1.735 4.7150002 9478304
0.40500006 1.735 4.7150002 7372928
0.40500006 1.745 4.7750001 5267552
0.42500007 1.735 4.6550002 10530992
0.44500005 1.725 4.665 7372928
0.44500005 1.735 4.645 10530992
0.44500005 1.745 4.645 9478288
0.41500005 1.735 4.6849999 10530992
0.41500005 1.745 4.6750002 10530992
0.43500006 1.735 4.6849999 9478320
0.45500007 1.725 4.6350002 10530992
0.46500006 1.735 4.645 8425616
0.47500005 1.735 4.6550002 7368816
0.45500007 1.735 4.6849999 6320240
0.42500007 1.745 4.7350001 6320240
0.33500007 1.7550001 4.7550001 5267552
0.38500005 1.7550001 4.7350001 10530992
0.39500007 1.7650001 4.7350001 6320240
0.37500006 1.7650001 4.7649999 8421504
0.56500006 1.735 4.5250001 9478304
0.55500007 1.735 4.5450001 7372912
0.55500007 1.745 4.5450001 10530992
0.56500006 1.735 4.5450001 6320240
0.51500005 1.735 4.585 9478304
0.51500005 1.745 4.585 10530992
0.52500004 1.735 4.585 7372928
0.52500004 1.745 4.5750003 10530992
0.49500006 1.735 4.5950003 10530992
0.50500005 1.735 4.6150002 7372928
0.51500005 1.735 4.605 6320240
0.53500009 1.745 4.5650001 10530992
0.54500008 1.735 4.5549998 8425616
0.54500008 1.745 4.5549998 10530992
0.53500009 1.735 4.585 7372912
0.58500004 1.735 4.4949999 10530992
0.58500004 1.735 4.5050001 7372912
0.60500008 1.745 4.4850001 10530992
0.59500009 1.735 4.4949999 9478304
0.60500008 1.735 4.4949999 7372928
0.57500005 1.735 4.5149999 8425616
0.57500005 1.745 4.5149999 10530992
0.59500009 1.735 4.5149999 7372912
0.61500007 1.745 4.4749999 10530976
0.62500006 1.745 4.5050001 7372912
0.63500005 1.725 4.4749999 6324336
0.56500006 1.7550001 4.5250001 10530992
0.50500005 1.7650001 4.625 10530992
0.53500009 1.7550001 4.5650001 10530992
0.55500007 1.7550001 4.5549998 9478304
0.58500004 1.7550001 4.5050001 10530976
0.60500008 1.7550001 4.4850001 8425616
0.59500009 1.7550001 4.4949999 10530992
0.60500008 1.7750001 4.5349998 6320240
0.61500007 1.7550001 4.4749999 10530992
0.36500007 1.7850001 4.8049998 5267552
0.08500006 2.135 4.3450003 10530992
0.03500006 2.155 4.3850002 10530992
0.075000063 2.165 4.3850002 10530992
0.02500006 2.165 4.4050002 10530992
0.015000059 2.165 4.415 10530992
0.015000059 2.175 4.415 10530992
0.045000061 2.155 4.4050002 10530992
0.03500006 2.155 4.4250002 10530992
0.03500006 2.165 4.415 10530992
0.045000061 2.175 4.4050002 10530992
0.015000059 2.155 4.4450002 10530992
0.015000059 2.165 4.4349999 10531008
0.02500006 2.155 4.4349999 10530992
0.03500006 2.165 4.4650002 10530992
0.045000061 2.165 4.4549999 10530992
0.045000061 2.165 4.4650002 10530992
0.055000059 2.165 4.395 10530992
0.055000059 2.165 4.4250002 10530992
0.075000063 2.165 4.415 10530992
0.08500006 2.155 4.4250002 10530992
0.08500006 2.165 4.415 10530992
0.055000059 2.165 4.4349999 10530992
0.065000057 2.165 4.4650002 10530992
0.075000063 2.165 4.4450002 10530992
0.075000063 2.155 4.4549999 10530992
0.075000063 2.155 4.4650002 10530992
0.08500006 2.155 4.4549999 10530992
0.095000058 2.145 4.3850002 10530992
0.10500006 2.145 4.3850002 10530992
0.10500006 2.145 4.4250002 10530992
0.10500006 2.135 4.4349999 10530992
0.095000058 2.145 4.4549999 10530992
0.11500006 2.145 4.4349999 10530992
0.16500007 2.145 4.4250002 10530992
0.14500006 2.155 4.375 10530992
0.095000058 2.155 4.415 10530992
0.10500006 2.155 4.415 10530992
0.11500006 2.165 4.4050002 10530992
0.11500006 2.155 4.4250002 10530992
0.11500006 2.165 4.4250002 10530992
0.095000058 2.155 4.4450002 10530992
0.13500006 2.165 4.395 10530992
0.14500006 2.165 4.415 10530992
0.16500007 2.165 4.395 10530992
0.15500006 2.155 4.4250002 10530992
0.15500006 2.175 4.4050002 10530992
0.13500006 2.165 4.4450002 10530992
0.14500006 2.155 4.4450002 10530992
0.14500006 2.165 4.4349999 10530992
0.13500006 2.165 4.4650002 10530992
0.13500006 2.175 4.4349999 10530992
0.15500006 2.155 4.4450002 10530992
0.15500006 2.175 4.4349999 10530992
0.16500007 2.175 4.4549999 10530992
0.16500007 2.1849999 4.4650002 10530992
0.19500005 2.145 4.3850002 10530992
0.17500006 2.135 4.4050002 10530992
0.19500005 2.145 4.395 10530992
0.20500006 2.145 4.4050002 10530992
0.21500006 2.145 4.4250002 10530992
0.24500006 2.155 4.375 10530992
0.17500006 2.165 4.395 10530992
0.17500006 2.155 4.4250002 10530992
0.17500006 2.165 4.4250002 10530992
0.19500005 2.165 4.395 10530992
0.20500006 2.165 4.4050002 10530992
0.20500006 2.165 4.415 10530992
0.18500006 2.155 4.4650002 10530992
0.19500005 2.155 4.4450002 10530992
0.20500006 2.155 4.4549999 10530992
0.21500006 2.155 4.4250002 10530992
0.22500005 2.155 4.415 10530992
0.21500006 2.175 4.415 10530992
0.23500006 2.165 4.395 10530992
0.23500006 2.165 4.415 10530992
0.22500005 2.155 4.4450002 10530992
0.21500006 2.175 4.4349999 10530992
0.22500005 2.175 4.4349999 10530992
0.22500005 2.1849999 4.4349999 10530992
0.24500006 2.165 4.4349999 10530992
0.24500006 2.165 4.4650002 10530992
0.29500005 2.165 4.3850002 10530992
0.25500005 2.155 4.395 10530992
0.26500005 2.155 4.4250002 10530992
0.26500005 2.165 4.4250002 10530992
0.26500005 2.175 4.4050002 10530992
0.28500006 2.155 4.4050002 10530992
0.28500006 2.165 4.4050002 10530992
0.27500007 2.175 4.415 10530992
0.25500005 2.165 4.4349999 10530992
0.25500005 2.165 4.4650002 10530992
0.26500005 2.155 4.4549999 10530992
0.27500007 2.175 4.4349999 10530992
0.27500007 2.175 4.4549999 10530992
0.29500005 2.165 4.4250002 10530992
0.31500006 2.175 4.4050002 10530992
0.32500005 2.175 4.415 10530992
0.30500007 2.165 4.4549999 10530992
0.31500006 2.165 4.4450002 10530992
0.31500006 2.155 4.4549999 10530992
0.31500006 2.175 4.4349999 10530992
0.32500005 2.175 4.4349999 10530992
0.32500005 2.175 4.4549999 10530992
0.39500007 2.165 4.3850002 10530992
0.40500006 2.165 4.3850002 10530992
0.33500007 2.165 4.395 10530992
0.34500006 2.165 4.4250002 10530992
0.34500006 2.175 4.4050002 10530992
0.35500005 2.175 4.4050002 10530992
0.33500007 2.165 4.4650002 10530992
0.33500007 2.175 4.4349999 10530992
0.33500007 2.175 4.4549999 10530992
0.36500007 2.165 4.4349999 10530992
0.35500005 2.155 4.4549999 10530992
0.35500005 2.155 4.4650002 10530992
0.35500005 2.165 4.4549999 10530992
0.36500007 2.155 4.4549999 10530992
0.36500007 2.175 4.4349999 10530992
0.38500005 2.165 4.4050002 10530992
0.37500006 2.155 4.4250002 10530992
0.37500006 2.165 4.4250002 10530992
0.38500005 2.155 4.4250002 10530992
0.38500005 2.165 4.4250002 10530992
0.37500006 2.175 4.4050002 10530992
0.40500006 2.155 4.4050002 10530992
0.37500006 2.155 4.4450002 10530992
0.38500005 2.155 4.4549999 10530992
0.39500007 2.165 4.4450002 10530992
0.40500006 2.165 4.4349999 10530992
0.39500007 2.165 4.4650002 10530992
0.39500007 2.175 4.4349999 10530992
0.47500005 2.145 4.355 10530992
0.48500007 2.145 4.355 10530992
0.45500007 2.155 4.375 10530992
0.46500006 2.155 4.375 10530992
0.41500005 2.165 4.415 10530992
0.41500005 2.175 4.4050002 10530992
0.44500005 2.175 4.4050002 10530992
0.43500006 2.175 4.415 10530992
0.42500007 2.165 4.4450002 10530992
0.41500005 2.165 4.4650002 10530992
0.43500006 2.175 4.4349999 10530992
0.44500005 2.1849999 4.4450002 10530992
0.45500007 2.165 4.4250002 10530992
0.47500005 2.165 4.4250002 10530992
0.45500007 2.165 4.4549999 10530992
0.47500005 2.1849999 4.4450002 10530992
0.47500005 2.175 4.4650002 10530992
0.55500007 2.145 4.3850002 10530992
0.50500005 2.165 4.3850002 10530992
0.54500008 2.155 4.3650002 10530992
0.55500007 2.155 4.375 10530992
0.49500006 2.165 4.4050002 10530992
0.50500005 2.165 4.415 10530992
0.51500005 2.165 4.4250002 10530992
0.52500004 2.165 4.4250002 10530992
0.51500005 2.175 4.4050002 10530992
0.52500004 2.175 4.415 10530992
0.49500006 2.165 4.4450002 10530992
0.50500005 2.165 4.4349999 10530992
0.53500009 2.155 4.395 10530992
0.54500008 2.155 4.395 10530992
0.54500008 2.175 4.4250002 10530992
0.55500007 2.155 4.415 10530992
0.56500006 2.155 4.4250002 10530992
0.54500008 2.165 4.4349999 10530992
0.55500007 2.165 4.4650002 10530992
0.56500006 2.165 4.4650002 10530992
0.57500005 2.165 4.3850002 10530992
0.61500007 2.165 4.3850002 10530992
0.57500005 2.165 4.4250002 10530992
0.58500004 2.1849999 4.4250002 10530992
0.60500008 2.165 4.395 10530992
0.59500009 2.175 4.415 10530992
0.57500005 2.165 4.4450002 10530992
0.58500004 2.165 4.4650002 10530976
0.59500009 2.155 4.4450002 10530992
0.59500009 2.165 4.4450002 10530992
0.60500008 2.155 4.4450002 10530992
0.60500008 2.165 4.4349999 10530992
0.59500009 2.175 4.4450002 10530992
0.60500008 2.175 4.4450002 10530992
0.62500006 2.165 4.4050002 10530992
0.61500007 2.155 4.4250002 10530992
0.61500007 2.165 4.415 10530992
0.63500005 2.175 4.415 10530992
0.61500007 2.155 4.4549999 10530992
0.62500006 2.175 4.4549999 10530992
0.63500005 2.175 4.4450002 10530992
0.64500004 2.175 4.4650002 10530992
0.03500006 2.145 4.5349998 9478320
0.02500006 2.145 4.5950003 10530992
0.02500006 2.145 4.625 10530992
0.03500006 2.145 4.5950003 10530992
0.045000061 2.145 4.625 10530992
0.015000059 2.165 4.4850001 10530992
0.02500006 2.155 4.4850001 10530992
0.02500006 2.165 4.4749999 10530992
0.02500006 2.155 4.5050001 9478304
0.03500006 2.165 4.4850001 10530992
0.045000061 2.155 4.4749999 10530992
0.03500006 2.155 4.4949999 10530992
0.045000061 2.155 4.4949999 10530992
0.015000059 2.165 4.5149999 9478304
0.02500006 2.165 4.5450001 9478304
0.03500006 2.155 4.5149999 9478304
0.045000061 2.155 4.5149999 9478304
0.065000057 2.155 4.4749999 10530992
0.065000057 2.155 4.4949999 10530992
0.08500006 2.155 4.4749999 10530992
0.075000063 2.155 4.4949999 10530992
0.08500006 2.155 4.4949999 10530992
0.065000057 2.155 4.5250001 10530992
0.075000063 2.155 4.5250001 10530992
0.08500006 2.155 4.5250001 10530992
0.02500006 2.155 4.5650001 10530992
0.015000059 2.155 4.585 10530992
0.02500006 2.165 4.5750003 10530992
0.015000059 2.175 4.585 10530992
0.015000059 2.1849999 4.585 9478320
0.03500006 2.155 4.5650001 10530992
0.045000061 2.155 4.5549998 9478304
0.015000059 2.155 4.5950003 10530992
0.045000061 2.155 4.5950003 10530992
0.045000061 2.165 4.5950003 10530992
0.03500006 2.155 4.625 10530992
0.065000057 2.165 4.5750003 9478304
0.075000063 2.165 4.5650001 9478320
0.08500006 2.175 4.585 10530992
0.065000057 2.165 4.625 10530992
0.065000057 2.175 4.625 9478304
0.08500006 2.165 4.605 9478304
0.08500006 2.165 4.6150002 9478304
0.075000063 2.175 4.6150002 9478304
0.12500006 2.145 4.5349998 10530992
0.13500006 2.145 4.5450001 10530992
0.12500006 2.145 4.5650001 10530992
0.11500006 2.145 4.585 10530992
0.12500006 2.145 4.585 10530992
0.095000058 2.155 4.4949999 10530992
0.10500006 2.155 4.5050001 10530992
0.12500006 2.155 4.4749999 10530992
0.12500006 2.155 4.5050001 10530992
0.095000058 2.155 4.5349998 10530992
0.11500006 2.155 4.5250001 10530992
0.12500006 2.155 4.5250001 10530992
0.13500006 2.155 4.4850001 10530992
0.13500006 2.155 4.5050001 10530992
0.15500006 2.165 4.4949999 10530992
0.13500006 2.155 4.5250001 10530992
0.14500006 2.165 4.5149999 10530992
0.14500006 2.155 4.5349998 10530992
0.095000058 2.165 4.5750003 10530992
0.11500006 2.155 4.5650001 10530992
0.11500006 2.165 4.5650001 10530992
0.095000058 2.155 4.5950003 9478304
0.095000058 2.165 4.5950003 10530992
0.14500006 2.155 4.5549998 10530992
0.13500006 2.155 4.5750003 10530992
0.14500006 2.155 4.585 10530992
0.16500007 2.155 4.585 10530992
0.16500007 2.175 4.5650001 10530992
0.16500007 2.1849999 4.5549998 10530992
0.16500007 2.175 4.585 10530992
0.13500006 2.155 4.5950003 10530992
0.13500006 2.155 4.625 10530992
0.14500006 2.155 4.6150002 10530992
0.15500006 2.155 4.625 10530992
0.16500007 2.155 4.6150002 10530992
0.015000059 2.145 4.6849999 10530992
0.015000059 2.135 4.7049999 10530992
0.02500006 2.135 4.7049999 10530992
0.02500006 2.145 4.7049999 10530992
0.03500006 2.135 4.7049999 10530992
0.03500006 2.145 4.7049999 10530992
0.055000059 2.135 4.7049999 10530992
0.055000059 2.145 4.7049999 10530992
0.08500006 2.145 4.6750002 10530992
0.015000059 2.145 4.7449999 10530992
0.02500006 2.145 4.7350001 10530992
0.03500006 2.135 4.7249999 10530992
0.02500006 2.135 4.7649999 10530992
0.015000059 2.145 4.7750001 10530992
0.03500006 2.135 4.7649999 10530992
0.055000059 2.135 4.7249999 10530992
0.065000057 2.145 4.7150002 10530992
0.065000057 2.135 4.7350001 10530992
0.075000063 2.145 4.7249999 10530992
0.08500006 2.145 4.7249999 10530992
0.055000059 2.135 4.7550001 10530992
0.065000057 2.135 4.7649999 10530992
0.065000057 2.135 4.7849998 10530992
0.075000063 2.145 4.7550001 10530992
0.075000063 2.145 4.7750001 10530992
0.015000059 2.155 4.6350002 10530992
0.015000059 2.155 4.6550002 10530992
0.02500006 2.155 4.6550002 10530992
0.03500006 2.155 4.6550002 10530992
0.015000059 2.155 4.6750002 10531008
0.02500006 2.155 4.6849999 10530992
0.03500006 2.155 4.6849999 10530992
0.065000057 2.155 4.6350002 10530992
0.055000059 2.155 4.6550002 10530992
0.065000057 2.155 4.6550002 10530992
0.075000063 2.155 4.6350002 10530992
0.075000063 2.165 4.6350002 9478320
0.08500006 2.155 4.6350002 10530992
0.075000063 2.155 4.6550002 10530992
0.08500006 2.155 4.6550002 10530992
0.055000059 2.155 4.6950002 10530992
0.065000057 2.155 4.6950002 10530992
0.065000057 2.155 4.7049999 10530992
0.075000063 2.155 4.6849999 10530992
0.08500006 2.155 4.7049999 10530992
0.075000063 2.155 4.7150002 10530992
0.10500006 2.145 4.6950002 10530992
0.16500007 2.145 4.6950002 9478304
0.12500006 2.145 4.7249999 10530992
0.12500006 2.135 4.7350001 10530992
0.10500006 2.145 4.7849998 10530992
0.11500006 2.145 4.7550001 10530992
0.12500006 2.135 4.7550001 10530992
0.11500006 2.145 4.7750001 10530992
0.12500006 2.135 4.7849998 10530992
0.14500006 2.135 4.7249999 10530992
0.14500006 2.145 4.7350001 10530992
0.15500006 2.145 4.7249999 10530992
0.15500006 2.145 4.7449999 10530992
0.16500007 2.145 4.7449999 10530992
0.14500006 2.135 4.7550001 10530992
0.14500006 2.135 4.7849998 9482416
0.15500006 2.135 4.7649999 10530992
0.16500007 2.145 4.7649999 10530992
0.15500006 2.135 4.7849998 9478320
0.16500007 2.135 4.7849998 9478320
0.10500006 2.165 4.6550002 9478304
0.11500006 2.155 4.6350002 9478304
0.12500006 2.155 4.6350002 9478304
0.10500006 2.155 4.6750002 10530992
0.10500006 2.165 4.6750002 10530992
0.12500006 2.165 4.6849999 9478304
0.11500006 2.155 4.6950002 10530992
0.11500006 2.155 4.7049999 10530992
0.11500006 2.175 4.6950002 9478320
0.13500006 2.155 4.6550002 9478304
0.16500007 2.155 4.645 10530992
0.15500006 2.155 4.6550002 9478304
0.16500007 2.155 4.6550002 10530992
0.15500006 2.155 4.6849999 9478304
0.16500007 2.155 4.6849999 9478304
0.10500006 2.155 4.7350001 10530992
0.11500006 2.155 4.7350001 10530992
0.12500006 2.165 4.7350001 10530992
0.12500006 2.175 4.7249999 10530992
0.095000058 2.155 4.7649999 10530992
0.10500006 2.155 4.7649999 10530992
0.14500006 2.165 4.7150002 9478304
0.14500006 2.165 4.7249999 10530992
0.15500006 2.155 4.7249999 10530992
0.16500007 2.155 4.7350001 10530992
0.19500005 2.145 4.5050001 10530992
0.20500006 2.145 4.5050001 10530992
0.19500005 2.145 4.5250001 10530992
0.22500005 2.145 4.5349998 10530992
0.23500006 2.145 4.5349998 10530992
0.24500006 2.145 4.5549998 10530992
0.22500005 2.145 4.625 10530992
0.17500006 2.165 4.4949999 10530992
0.19500005 2.155 4.5050001 10530992
0.19500005 2.165 4.4949999 10530992
0.20500006 2.175 4.5050001 10530992
0.18500006 2.165 4.5450001 10530992
0.18500006 2.175 4.5349998 10530992
0.20500006 2.165 4.5250001 10530992
0.20500006 2.155 4.5450001 10530992
0.21500006 2.155 4.4850001 10530992
0.23500006 2.165 4.5050001 10530992
0.22500005 2.155 4.5250001 10530992
0.22500005 2.175 4.5349998 10530992
0.23500006 2.155 4.5250001 10530992
0.23500006 2.165 4.5250001 10530992
0.24500006 2.155 4.5250001 10530992
0.24500006 2.165 4.5250001 10530992
0.24500006 2.155 4.5450001 10530992
0.24500006 2.175 4.5149999 10530992
0.17500006 2.155 4.585 10530992
0.17500006 2.165 4.5750003 10530992
0.18500006 2.155 4.5750003 10530992
0.18500006 2.165 4.5750003 10530992
0.17500006 2.1849999 4.5650001 10530992
0.19500005 2.155 4.5750003 10530992
0.17500006 2.155 4.605 10530992
0.18500006 2.155 4.605 10530992
0.18500006 2.155 4.625 10530992
0.19500005 2.155 4.5950003 10530992
0.20500006 2.155 4.625 10530992
0.21500006 2.155 4.5750003 10530992
0.22500005 2.155 4.5750003 9482416
0.23500006 2.155 4.5650001 10530992
0.21500006 2.155 4.605 10530992
0.22500005 2.155 4.5950003 10530992
0.21500006 2.155 4.625 9482416
0.23500006 2.155 4.605 10530992
0.23500006 2.155 4.625 10530992
0.24500006 2.155 4.6150002 10530992
0.27500007 2.145 4.5450001 10530992
0.28500006 2.145 4.5349998 10530992
0.26500005 2.145 4.585 10530992
0.25500005 2.165 4.5050001 10530992
0.26500005 2.155 4.5050001 10530992
0.26500005 2.165 4.4949999 10530992
0.27500007 2.155 4.4749999 10530992
0.27500007 2.165 4.4749999 10530992
0.28500006 2.155 4.5050001 10530992
0.25500005 2.155 4.5250001 10530992
0.25500005 2.165 4.5250001 10530992
0.25500005 2.155 4.5450001 10530992
0.28500006 2.155 4.5149999 10530992
0.27500007 2.155 4.5349998 10530992
0.29500005 2.155 4.4850001 10530992
0.30500007 2.165 4.4749999 10530992
0.30500007 2.165 4.4850001 10530992
0.29500005 2.155 4.4949999 10530992
0.29500005 2.175 4.4850001 10530992
0.29500005 2.1849999 4.4850001 10530992
0.32500005 2.165 4.4749999 10530992
0.31500006 2.165 4.5050001 10530992
0.32500005 2.155 4.5050001 10530992
0.32500005 2.165 4.4949999 10530992
0.29500005 2.155 4.5250001 10530992
0.30500007 2.165 4.5149999 10530992
0.30500007 2.165 4.5450001 10530992
0.31500006 2.165 4.5250001 10530992
0.25500005 2.155 4.5650001 10530992
0.28500006 2.155 4.5650001 10530992
0.27500007 2.155 4.5750003 10530992
0.27500007 2.155 4.605 10530992
0.28500006 2.165 4.6150002 10530992
0.29500005 2.155 4.5549998 10530992
0.29500005 2.155 4.5750003 10530992
0.30500007 2.165 4.5750003 10530992
0.32500005 2.165 4.5549998 10530992
0.32500005 2.155 4.585 10530992
0.32500005 2.165 4.5750003 10530992
0.30500007 2.165 4.6150002 10530992
0.31500006 2.165 4.5950003 10530992
0.32500005 2.155 4.605 10530992
0.31500006 2.165 4.625 10530992
0.17500006 2.145 4.665 9478304
0.19500005 2.145 4.7049999 9478304
0.20500006 2.145 4.6950002 9478320
0.22500005 2.145 4.6350002 10530992
0.22500005 2.145 4.6550002 9478320
0.23500006 2.145 4.645 10530992
0.23500006 2.145 4.6550002 9478320
0.21500006 2.135 4.6849999 9482416
0.21500006 2.145 4.6750002 9482416
0.22500005 2.135 4.6750002 9478320
0.22500005 2.135 4.7049999 9478304
0.24500006 2.145 4.6849999 10530992
0.20500006 2.145 4.7249999 9478304
0.18500006 2.135 4.7649999 10530992
0.18500006 2.145 4.7550001 10530992
0.18500006 2.135 4.7849998 9478320
0.19500005 2.145 4.7750001 10530992
0.21500006 2.145 4.7150002 9478288
0.24500006 2.145 4.7150002 9478304
0.24500006 2.145 4.7449999 9478304
0.21500006 2.145 4.7550001 9478304
0.23500006 2.145 4.7550001 8425616
0.24500006 2.145 4.7750001 8429712
0.17500006 2.155 4.6350002 10530992
0.17500006 2.155 4.665 10530992
0.18500006 2.155 4.6550002 10530992
0.20500006 2.155 4.6550002 9482416
0.19500005 2.155 4.6849999 10530992
0.20500006 2.155 4.6750002 10530992
0.21500006 2.155 4.6550002 9482416
0.17500006 2.155 4.7150002 9478304
0.17500006 2.155 4.7350001 9478320
0.19500005 2.155 4.7449999 9478304
0.19500005 2.155 4.7649999 10530992
0.20500006 2.155 4.7649999 9478304
0.25500005 2.145 4.645 10530992
0.26500005 2.145 4.645 9478320
0.28500006 2.145 4.645 10530976
0.25500005 2.145 4.6750002 10530992
0.26500005 2.145 4.6750002 10530992
0.30500007 2.145 4.665 9478304
0.29500005 2.145 4.7049999 10530976
0.30500007 2.145 4.6950002 9478304
0.25500005 2.145 4.7150002 10530976
0.26500005 2.145 4.7249999 9478320
0.25500005 2.135 4.7350001 9482400
0.26500005 2.145 4.7350001 9478304
0.25500005 2.135 4.7649999 8425616
0.27500007 2.135 4.7550001 9478304
0.28500006 2.145 4.7750001 9478304
0.29500005 2.135 4.7849998 9478304
0.29500005 2.145 4.7849998 9478304
0.31500006 2.145 4.7849998 9478304
0.32500005 2.145 4.7849998 9478304
0.25500005 2.155 4.6350002 10530992
0.26500005 2.155 4.6350002 9478320
0.27500007 2.155 4.6350002 10530992
0.28500006 2.155 4.645 10530992
0.27500007 2.155 4.6550002 10530992
0.25500005 2.155 4.7049999 10530992
0.26500005 2.155 4.7049999 9482416
0.27500007 2.155 4.6750002 9478320
0.28500006 2.155 4.7049999 9478304
0.30500007 2.155 4.645 9478304
0.31500006 2.165 4.645 10530992
0.32500005 2.155 4.645 10530992
0.31500006 2.155 4.665 10530992
0.29500005 2.155 4.6750002 9478304
0.31500006 2.155 4.6849999 9478304
0.32500005 2.165 4.6750002 9478304
0.31500006 2.155 4.7049999 9478304
0.28500006 2.155 4.7350001 9478320
0.28500006 2.155 4.7649999 9478304
0.29500005 2.155 4.7350001 9478304
0.30500007 2.155 4.7350001 9478304
0.32500005 2.155 4.7350001 9478304
0.29500005 2.155 4.7649999 9478304
0.32500005 2.155 4.7649999 9478304
0.31500006 2.155 4.7750001 9478304
0.02500006 2.135 4.7950001 10530992
0.03500006 2.135 4.7950001 10530992
0.03500006 2.135 4.8150001 10530992
0.015000059 2.135 4.8450003 10530992
0.02500006 2.135 4.8450003 10530992
0.015000059 2.135 4.8650002 10530992
0.03500006 2.125 4.8650002 10530992
0.03500006 2.135 4.8450003 10530992
0.055000059 2.135 4.7950001 10530992
0.055000059 2.135 4.8150001 10530992
0.065000057 2.135 4.8150001 10530992
0.075000063 2.135 4.7950001 10530992
0.075000063 2.135 4.8049998 10530992
0.055000059 2.125 4.8650002 10530992
0.055000059 2.135 4.8450003 10530992
0.065000057 2.135 4.8450003 10530992
0.065000057 2.135 4.8650002 9482416
0.015000059 2.125 4.8850002 10530992
0.015000059 2.125 4.9050002 10530992
0.02500006 2.125 4.9050002 10530992
0.02500006 2.135 4.875 10530992
0.02500006 2.135 4.895 10530992
0.03500006 2.125 4.9050002 10530992
0.03500006 2.135 4.895 10530992
0.02500006 2.115 4.9250002 10530992
0.015000059 2.115 4.9450002 10530992
0.03500006 2.115 4.9250002 10530992
0.03500006 2.115 4.9349999 9478320
0.095000058 2.145 4.8150001 10530992
0.095000058 2.145 4.8250003 10530992
0.10500006 2.145 4.8150001 10530992
0.11500006 2.145 4.8049998 10530992
0.10500006 2.125 4.855 9478320
0.095000058 2.135 4.8450003 10530992
0.10500006 2.135 4.8450003 9478320
0.10500006 2.145 4.835 10530992
0.11500006 2.125 4.855 9482416
0.11500006 2.135 4.835 9482416
0.11500006 2.145 4.835 9482416
0.13500006 2.135 4.8250003 9478320
0.14500006 2.135 4.8150001 9478320
0.15500006 2.135 4.8150001 9478320
0.16500007 2.135 4.8150001 9478320
0.13500006 2.135 4.8450003 9482416
0.14500006 2.135 4.8450003 9478320
0.13500006 2.135 4.8650002 9478320
0.14500006 2.135 4.8650002 9478320
0.15500006 2.135 4.8450003 9478320
0.11500006 2.105 4.9349999 9478304
0.10500006 2.125 4.8850002 9478320
0.095000058 2.135 4.875 9478320
0.095000058 2.135 4.895 10530992
0.11500006 2.125 4.875 9478320
0.11500006 2.125 4.9050002 9478320
0.10500006 2.125 4.915 9478320
0.10500006 2.115 4.9450002 9478304
0.11500006 2.115 4.915 9478320
0.13500006 2.105 4.9349999 9478304
0.13500006 2.125 4.895 9478320
0.14500006 2.125 4.9050002 9478304
0.14500006 2.135 4.895 9478304
0.15500006 2.125 4.8850002 9478304
0.15500006 2.125 4.9050002 9478304
0.15500006 2.135 4.875 9478320
0.13500006 2.115 4.915 9478304
0.13500006 2.125 4.915 9478320
0.14500006 2.115 4.9250002 9478304
0.095000058 2.155 4.7950001 10530992
0.12500006 2.105 5.085 9478304
0.12500006 2.095 5.105 9478304
0.13500006 2.105 5.0750003 9478304
0.13500006 2.095 5.105 9478304
0.15500006 2.095 5.0950003 9478288
0.29500005 1.9350001 4.8650002 6320240
0.30500007 1.9450001 4.8650002 8425616
0.31500006 1.9450001 4.8450003 8425600
0.31500006 1.9450001 4.8650002 7372912
0.30500007 1.955 4.855 6320240
0.31500006 1.965 4.8450003 7372928
0.32500005 1.955 4.8450003 7368816
0.32500005 1.965 4.8450003 7372928
0.27500007 1.9450001 4.8850002 8425600
0.27500007 1.9350001 4.9050002 6316128
0.29500005 1.9350001 4.895 8425600
0.32500005 1.985 4.875 9478288
0.18500006 2.135 4.8150001 9478320
0.19500005 2.135 4.7950001 9478320
0.20500006 2.145 4.8049998 9478320
0.19500005 2.135 4.8250003 9478320
0.17500006 2.135 4.8450003 9478320
0.17500006 2.135 4.8650002 9478304
0.18500006 2.135 4.855 9478320
0.24500006 2.145 4.8250003 9478304
0.23500006 2.145 4.835 9478304
0.23500006 2.145 4.855 9478304
0.17500006 2.125 4.8850002 9478304
0.18500006 2.125 4.8850002 9478304
0.17500006 2.125 4.9050002 9478304
0.23500006 2.115 4.915 9478304
0.20500006 2.155 4.7950001 9478320
0.26500005 2.145 4.7950001 8425616
0.27500007 2.135 4.7950001 8425616
0.28500006 2.135 4.7950001 7377040
0.27500007 2.145 4.8250003 8425616
0.28500006 2.135 4.8150001 8425616
0.26500005 2.145 4.835 9478304
0.25500005 2.145 4.855 9478304
0.26500005 2.135 4.855 9478304
0.29500005 2.135 4.8049998 7377024
0.31500006 2.145 4.8049998 9478304
0.32500005 2.145 4.8049998 9478304
0.31500006 2.135 4.8150001 9478288
0.27500007 2.125 4.8850002 8429728
0.27500007 2.135 4.8850002 8425616
0.28500006 2.115 4.9450002 9478288
0.28500006 2.125 4.9349999 9478288
0.29500005 2.125 4.8850002 9478304
0.30500007 2.125 4.8850002 9478304
0.29500005 2.115 4.895 8429712
0.30500007 2.115 4.895 8429712
0.29500005 2.135 4.875 8425616
0.31500006 2.125 4.8850002 9478288
0.31500006 2.115 4.895 9478288
0.29500005 2.115 4.9250002 9478288
0.30500007 2.115 4.9250002 8429712
0.29500005 2.115 4.9450002 9478288
0.30500007 2.115 4.9450002 8429712
0.32500005 2.115 4.9250002 9478288
0.24500006 2.105 5.0250001 9478288
0.22500005 2.115 4.9549999 9478304
0.20500006 2.095 5.0950003 9478288
0.23500006 2.105 5.0349998 9478288
0.23500006 2.105 5.0450001 9478288
0.24500006 2.105 5.0450001 9478288
0.24500006 2.095 5.0650001 9478288
0.21500006 2.095 5.0750003 9478288
0.22500005 2.095 5.105 9478288
0.23500006 2.095 5.0750003 9478288
0.23500006 2.095 5.0950003 9478288
0.25500005 2.105 5.0250001 8429712
0.28500006 2.105 4.9949999 8425616
0.27500007 2.105 5.0250001 9478288
0.28500006 2.115 4.9749999 8425616
0.29500005 2.115 4.9749999 8425616
0.30500007 2.115 4.9749999 8429712
0.25500005 2.095 5.0450001 9478288
0.26500005 2.095 5.0650001 9478288
0.27500007 2.095 5.0650001 9478288
0.31500006 2.075 5.0750003 9478288
0.45500007 1.975 4.7649999 7372928
0.46500006 1.975 4.7550001 7372928
0.47500005 1.975 4.7550001 7372928
0.48500007 1.975 4.7550001 7372928
0.48500007 1.995 4.7550001 7372928
0.34500006 2.145 4.4850001 10530992
0.34500006 2.145 4.5149999 10530992
0.33500007 2.155 4.4749999 10530992
0.36500007 2.165 4.4850001 10530992
0.35500005 2.155 4.4949999 10530992
0.36500007 2.155 4.5050001 10530992
0.33500007 2.155 4.5250001 10530992
0.34500006 2.155 4.5450001 10530992
0.35500005 2.155 4.5250001 10530992
0.37500006 2.155 4.4749999 10530992
0.38500005 2.165 4.4850001 10530992
0.40500006 2.155 4.4850001 10530992
0.39500007 2.155 4.4949999 10530992
0.40500006 2.155 4.5050001 10530992
0.38500005 2.165 4.5250001 10530992
0.38500005 2.165 4.5450001 10530992
0.40500006 2.155 4.5250001 10530976
0.39500007 2.165 4.5349998 10530992
0.40500006 2.155 4.5450001 10530992
0.33500007 2.155 4.5549998 10530992
0.33500007 2.155 4.585 10530992
0.34500006 2.165 4.585 10530992
0.35500005 2.155 4.5549998 10530992
0.33500007 2.155 4.605 10530992
0.34500006 2.155 4.605 10530992
0.33500007 2.155 4.625 10530992
0.36500007 2.165 4.605 10530992
0.35500005 2.155 4.625 10530992
0.36500007 2.165 4.6150002 10530992
0.37500006 2.175 4.5549998 10530992
0.39500007 2.165 4.5750003 10530992
0.37500006 2.165 4.5950003 10530992
0.37500006 2.165 4.6150002 10530992
0.38500005 2.165 4.625 10530976
0.37500006 2.175 4.5950003 10530992
0.38500005 2.175 4.5950003 10530992
0.38500005 2.175 4.6150002 10530976
0.39500007 2.165 4.5950003 10530992
0.44500005 2.145 4.585 9478304
0.45500007 2.145 4.6150002 9478304
0.41500005 2.155 4.4749999 10530992
0.42500007 2.165 4.4749999 10530992
0.42500007 2.165 4.4949999 10530992
0.43500006 2.155 4.5050001 10530992
0.43500006 2.165 4.4949999 10530992
0.43500006 2.175 4.4850001 10530992
0.43500006 2.1849999 4.4749999 10530992
0.44500005 2.175 4.4749999 10530992
0.41500005 2.165 4.5149999 10530992
0.42500007 2.165 4.5250001 10530992
0.41500005 2.165 4.5450001 10530992
0.43500006 2.165 4.5450001 10530992
0.44500005 2.165 4.5450001 10530992
0.46500006 2.165 4.4749999 10530992
0.45500007 2.155 4.5050001 10530992
0.45500007 2.165 4.4949999 10530992
0.45500007 2.175 4.4949999 10530992
0.46500006 2.175 4.5050001 10530992
0.47500005 2.165 4.4749999 10530992
0.48500007 2.1849999 4.4749999 10530992
0.48500007 2.1849999 4.5050001 10530992
0.45500007 2.155 4.5250001 10530992
0.46500006 2.165 4.5349998 10530976
0.46500006 2.175 4.5349998 10530992
0.47500005 2.165 4.5250001 10530992
0.47500005 2.175 4.5149999 10530992
0.48500007 2.175 4.5149999 10530992
0.42500007 2.165 4.5650001 10526880
0.42500007 2.155 4.5750003 10530976
0.43500006 2.165 4.5650001 10526880
0.44500005 2.165 4.5650001 10530992
0.43500006 2.155 4.5750003 10530976
0.44500005 2.165 4.585 10526880
0.41500005 2.165 4.5950003 10530976
0.42500007 2.155 4.5950003 10530976
0.41500005 2.165 4.625 10530976
0.43500006 2.155 4.5950003 10530976
0.43500006 2.155 4.625 9478304
0.46500006 2.155 4.5549998 10530976
0.45500007 2.165 4.5750003 10530976
0.46500006 2.155 4.585 10530976
0.48500007 2.165 4.5549998 10530976
0.48500007 2.165 4.5650001 10530976
0.47500005 2.165 4.585 10530976
0.46500006 2.155 4.605 10526880
0.46500006 2.155 4.625 9478304
0.48500007 2.165 4.605 10530976
0.47500005 2.155 4.625 9478304
0.47500005 2.165 4.625 10530976
0.48500007 2.165 4.625 9478304
0.35500005 2.145 4.6350002 9478320
0.34500006 2.145 4.7049999 9478304
0.35500005 2.145 4.6750002 9478304
0.35500005 2.145 4.6849999 9478304
0.36500007 2.145 4.6750002 9478304
0.36500007 2.145 4.6950002 9478304
0.39500007 2.145 4.6550002 9478304
0.40500006 2.145 4.665 9478304
0.38500005 2.145 4.6950002 9478304
0.40500006 2.145 4.6849999 9478304
0.39500007 2.145 4.6950002 9478304
0.34500006 2.145 4.7249999 9478304
0.35500005 2.145 4.7249999 9478304
0.33500007 2.145 4.7550001 9478304
0.34500006 2.145 4.7550001 9478304
0.33500007 2.145 4.7849998 9478304
0.34500006 2.145 4.7750001 9478304
0.36500007 2.145 4.7550001 9478304
0.36500007 2.145 4.7849998 9478304
0.37500006 2.145 4.7249999 9478304
0.38500005 2.145 4.7249999 9478304
0.37500006 2.145 4.7449999 9478304
0.38500005 2.135 4.7350001 9478304
0.39500007 2.145 4.7150002 9478304
0.40500006 2.145 4.7150002 9478304
0.39500007 2.135 4.7350001 8425632
0.37500006 2.145 4.7750001 8425616
0.38500005 2.145 4.7750001 8425616
0.39500007 2.135 4.7550001 8425616
0.34500006 2.155 4.645 9478304
0.36500007 2.155 4.6350002 10530992
0.36500007 2.155 4.665 9478304
0.33500007 2.155 4.6849999 9478320
0.34500006 2.155 4.6750002 9478304
0.37500006 2.155 4.665 9478304
0.37500006 2.165 4.6550002 10530976
0.39500007 2.165 4.645 10530976
0.40500006 2.155 4.645 10530992
0.40500006 2.165 4.6350002 10530992
0.39500007 2.155 4.6550002 9478304
0.40500006 2.155 4.6550002 9478304
0.38500005 2.155 4.6750002 9478304
0.33500007 2.155 4.7150002 9478304
0.33500007 2.155 4.7350001 9478304
0.42500007 2.145 4.7049999 9478304
0.42500007 2.145 4.7150002 9478288
0.41500005 2.135 4.7350001 8425616
0.42500007 2.145 4.7449999 8429712
0.41500005 2.135 4.7649999 8425616
0.42500007 2.135 4.7649999 9478304
0.41500005 2.135 4.7849998 9478304
0.42500007 2.135 4.7849998 9478304
0.43500006 2.145 4.7649999 9478288
0.44500005 2.135 4.7849998 9478304
0.48500007 2.145 4.7449999 9478304
0.45500007 2.145 4.7750001 9478288
0.46500006 2.145 4.7750001 9478304
0.47500005 2.135 4.7649999 9478304
0.48500007 2.135 4.7849998 9478288
0.41500005 2.165 4.645 9478304
0.42500007 2.155 4.6350002 9478304
0.41500005 2.155 4.665 9478304
0.43500006 2.155 4.665 9478304
0.44500005 2.155 4.6550002 9478304
0.41500005 2.155 4.6750002 9478304
0.43500006 2.155 4.6849999 9478304
0.44500005 2.155 4.6950002 9478304
0.45500007 2.155 4.6550002 9478304
0.46500006 2.155 4.6550002 9478304
0.47500005 2.155 4.6550002 9478304
0.45500007 2.165 4.7049999 9478304
0.47500005 2.165 4.7049999 9478304
0.48500007 2.155 4.6950002 9478288
0.43500006 2.155 4.7150002 9478304
0.48500007 2.155 4.7350001 9478304
0.48500007 2.165 4.7350001 8429712
0.46500006 2.155 4.7750001 9478304
0.47500005 2.155 4.7649999 9478304
0.57500005 1.975 4.625 7372928
0.59500009 1.985 4.605 7372928
0.62500006 1.965 4.585 8425616
0.63500005 1.965 4.5750003 10526880
0.64500004 1.965 4.5750003 6320224
0.64500004 1.975 4.5650001 10526880
0.63500005 1.975 4.5750003 9478288
0.61500007 1.985 4.6150002 8421504
0.62500006 1.975 4.6150002 10530976
0.64500004 1.995 4.5750003 9478304
0.62500006 1.995 4.605 7372928
0.61500007 1.995 4.6150002 7372928
0.64500004 2.0150001 4.625 7372912
0.52500004 1.965 4.6950002 7372928
0.52500004 1.975 4.6849999 7372928
0.53500009 1.965 4.665 7372928
0.56500006 1.965 4.6350002 7372928
0.56500006 1.975 4.6350002 7372928
0.53500009 1.965 4.6849999 7372928
0.53500009 1.985 4.6849999 7372928
0.54500008 1.975 4.6849999 7372928
0.54500008 1.985 4.6750002 7372928
0.55500007 1.985 4.6750002 7372928
0.56500006 1.985 4.6950002 7372928
0.50500005 1.975 4.7449999 7372928
0.51500005 1.985 4.7350001 7372928
0.50500005 1.995 4.7550001 7372928
0.56500006 2.0150001 4.7249999 7372928
0.57500005 1.965 4.6350002 7372928
0.59500009 1.975 4.645 7372928
0.59500009 1.985 4.6350002 7372928
0.60500008 1.975 4.6350002 7372928
0.60500008 1.975 4.645 7372928
0.57500005 1.975 4.6849999 7372928
0.59500009 1.975 4.6849999 8425616
0.61500007 1.975 4.6350002 7372928
0.59500009 1.995 4.7449999 9478304
0.52500004 2.175 4.4850001 10530992
0.51500005 2.1849999 4.5050001 10530992
0.49500006 2.165 4.5450001 10530976
0.50500005 2.175 4.5349998 10530992
0.52500004 2.165 4.5149999 10530976
0.51500005 2.165 4.5349998 10530992
0.52500004 2.165 4.5349998 10530976
0.51500005 2.175 4.5149999 10530992
0.52500004 2.175 4.5149999 10530992
0.51500005 2.175 4.5349998 10530976
0.50500005 2.1950002 4.5450001 10530992
0.53500009 2.175 4.4749999 10530992
0.54500008 2.175 4.4850001 10530992
0.53500009 2.175 4.5050001 10530992
0.53500009 2.1849999 4.5050001 10530976
0.56500006 2.165 4.4949999 10530976
0.55500007 2.175 4.5050001 10530976
0.54500008 2.165 4.5250001 10530976
0.54500008 2.155 4.5349998 10530976
0.55500007 2.165 4.5250001 10530976
0.56500006 2.165 4.5149999 10530976
0.55500007 2.165 4.5450001 10530976
0.56500006 2.165 4.5450001 10530976
0.50500005 2.165 4.5650001 10530976
0.49500006 2.1849999 4.5549998 10530992
0.50500005 2.175 4.5549998 10530976
0.49500006 2.175 4.585 10530976
0.52500004 2.165 4.5650001 10530976
0.52500004 2.155 4.585 10530976
0.49500006 2.165 4.605 10530976
0.50500005 2.165 4.625 9478304
0.51500005 2.165 4.605 9478304
0.51500005 2.165 4.625 9478304
0.52500004 2.165 4.625 9478304
0.53500009 2.155 4.5549998 10530976
0.54500008 2.165 4.5650001 10526880
0.55500007 2.165 4.5750003 10530976
0.53500009 2.165 4.605 10530976
0.54500008 2.165 4.5950003 10530976
0.53500009 2.165 4.625 9478304
0.56500006 2.165 4.5950003 10530976
0.61500007 2.145 4.6150002 9478304
0.62500006 2.145 4.6150002 9478304
0.63500005 2.145 4.6150002 10526880
0.58500004 2.165 4.4850001 10530992
0.57500005 2.155 4.5050001 10530976
0.57500005 2.165 4.4949999 10530992
0.59500009 2.155 4.4749999 10530976
0.60500008 2.155 4.4749999 10530976
0.58500004 2.165 4.5149999 10530976
0.57500005 2.165 4.5450001 10530976
0.59500009 2.165 4.5149999 10530976
0.59500009 2.165 4.5349998 10530976
0.61500007 2.155 4.4749999 10530976
0.61500007 2.155 4.5050001 10530976
0.62500006 2.155 4.5050001 10530976
0.63500005 2.165 4.4850001 10530976
0.63500005 2.155 4.4949999 10530976
0.64500004 2.155 4.5050001 10530976
0.64500004 2.165 4.4949999 10530976
0.63500005 2.175 4.4850001 10530992
0.64500004 2.175 4.4850001 10530992
0.61500007 2.165 4.5450001 10530976
0.64500004 2.165 4.5450001 9478304
0.57500005 2.165 4.5750003 10530976
0.58500004 2.175 4.585 10530976
0.60500008 2.165 4.5549998 10530976
0.60500008 2.165 4.5750003 9478304
0.59500009 2.175 4.585 10530976
0.57500005 2.175 4.6150002 9478304
0.58500004 2.175 4.6150002 9478288
0.60500008 2.155 4.625 9478304
0.60500008 2.175 4.6150002 9478288
0.63500005 2.165 4.5549998 10530976
0.64500004 2.155 4.5750003 10526880
0.64500004 2.165 4.5750003 9478304
0.63500005 2.175 4.585 9478288
0.61500007 2.155 4.605 9478304
0.61500007 2.165 4.605 9478288
0.62500006 2.155 4.5950003 9478304
0.62500006 2.165 4.5950003 9478304
0.62500006 2.1849999 4.605 9478288
0.63500005 2.155 4.5950003 9478304
0.63500005 2.165 4.5950003 10526880
0.64500004 2.155 4.5950003 10526880
0.51500005 2.145 4.7049999 9478304
0.56500006 2.145 4.665 9478304
0.54500008 2.145 4.7049999 9478304
0.55500007 2.145 4.6750002 9478304
0.56500006 2.145 4.6950002 9478304
0.49500006 2.145 4.7150002 9478304
0.50500005 2.145 4.7350001 9478304
0.52500004 2.145 4.7249999 9478304
0.51500005 2.145 4.7449999 9478304
0.52500004 2.145 4.7449999 9478304
0.49500006 2.135 4.7550001 9478304
0.50500005 2.135 4.7649999 9478304
0.49500006 2.135 4.7849998 9478304
0.50500005 2.135 4.7849998 9478288
0.51500005 2.145 4.7649999 9478304
0.53500009 2.145 4.7150002 9478304
0.54500008 2.145 4.7449999 9478304
0.55500007 2.145 4.7249999 9478304
0.56500006 2.145 4.7249999 9478304
0.55500007 2.145 4.7449999 9478304
0.53500009 2.145 4.7750001 9478304
0.54500008 2.145 4.7750001 9478304
0.56500006 2.145 4.7550001 9478304
0.55500007 2.145 4.7750001 9478288
0.56500006 2.145 4.7750001 9478304
0.49500006 2.155 4.6350002 9478304
0.50500005 2.155 4.6350002 9478304
0.49500006 2.155 4.6550002 9478304
0.50500005 2.155 4.6550002 9478304
0.51500005 2.165 4.645 9478304
0.52500004 2.165 4.645 9478304
0.49500006 2.165 4.6950002 8429712
0.52500004 2.165 4.6750002 8425616
0.51500005 2.165 4.7049999 8429712
0.52500004 2.155 4.7049999 9478304
0.52500004 2.165 4.7049999 9478304
0.54500008 2.165 4.6550002 9478288
0.55500007 2.165 4.6350002 9478304
0.56500006 2.155 4.6350002 9478288
0.55500007 2.155 4.665 9478304
0.55500007 2.165 4.6550002 9478288
0.56500006 2.155 4.6550002 9478304
0.56500006 2.175 4.6350002 9478288
0.53500009 2.165 4.6750002 8425616
0.54500008 2.155 4.6849999 9478304
0.54500008 2.165 4.6750002 9478288
0.53500009 2.155 4.6950002 9478304
0.53500009 2.155 4.7049999 9478304
0.49500006 2.155 4.7150002 9478304
0.59500009 2.145 4.645 9478304
0.60500008 2.145 4.645 9478304
0.58500004 2.145 4.6750002 9478304
0.60500008 2.145 4.6750002 9478304
0.61500007 2.145 4.6350002 9478304
0.62500006 2.145 4.6750002 9478304
0.62500006 2.145 4.7049999 9478304
0.64500004 2.145 4.6750002 9478304
0.63500005 2.145 4.6950002 9478304
0.64500004 2.145 4.6950002 9478304
0.57500005 2.145 4.7249999 9478304
