# .PCD v0.7 - Point Cloud Data file format
VERSION 0.7
FIELDS x y z rgba
SIZE 4 4 4 4
TYPE F F F U
COUNT 1 1 1 1
WIDTH 1255
HEIGHT 1
VIEWPOINT 0 0 0 1 0 0 0
POINTS 1255
DATA ascii
0.86500007 0.13500006 1.825 10518640
0.86500007 0.14500006 1.825 11571328
0.87500006 0.12500006 1.8050001 7360576
0.88500005 0.11500006 1.8050001 7360576
0.88500005 0.12500006 1.7950001 5255200
0.88500005 0.12500006 1.8050001 5259296
0.87500006 0.11500006 1.8150001 6311984
0.87500006 0.11500006 1.825 7364672
0.87500006 0.12500006 1.8150001 7364672
0.87500006 0.12500006 1.825 8413264
0.88500005 0.11500006 1.8150001 7360560
0.88500005 0.11500006 1.825 6311984
0.88500005 0.12500006 1.8150001 7360576
0.87500006 0.13500006 1.8050001 9465936
0.87500006 0.14500006 1.8050001 9465952
0.88500005 0.13500006 1.7950001 8413264
0.88500005 0.13500006 1.8050001 8417360
0.88500005 0.14500006 1.7950001 10518624
0.88500005 0.14500006 1.8050001 10514528
0.87500006 0.13500006 1.8150001 9465936
0.87500006 0.13500006 1.825 9470048
0.87500006 0.14500006 1.8150001 10518640
0.87500006 0.14500006 1.825 10522736
0.81500006 0.075000063 1.8950001 4206608
0.81500006 0.075000063 1.9050001 6307872
0.81500006 0.08500006 1.9050001 7356464
0.82500005 0.075000063 1.8950001 2105360
0.82500005 0.075000063 1.9050001 4206624
0.82500005 0.08500006 1.9050001 6307872
0.83500004 0.075000063 1.9050001 1052688
0.84500009 0.075000063 1.9050001 1052688
0.87500006 0.10500006 1.845 7364688
0.88500005 0.095000058 1.835 5263408
0.88500005 0.095000058 1.845 6312000
0.88500005 0.10500006 1.835 7364688
0.88500005 0.10500006 1.845 7364688
0.87500006 0.10500006 1.855 6312000
0.87500006 0.10500006 1.865 6312000
0.88500005 0.095000058 1.855 5259312
0.88500005 0.095000058 1.865 5259312
0.88500005 0.10500006 1.865 6316096
0.87500006 0.075000063 1.9050001 6311984
0.87500006 0.08500006 1.9050001 7360560
0.88500005 0.075000063 1.9050001 6307872
0.88500005 0.08500006 1.8950001 6307888
0.88500005 0.08500006 1.9050001 6311984
0.87500006 0.10500006 1.875 6312000
0.87500006 0.10500006 1.8850001 7360576
0.88500005 0.095000058 1.875 5259312
0.88500005 0.095000058 1.8850001 6311984
0.88500005 0.10500006 1.875 6312000
0.88500005 0.10500006 1.8850001 5259312
0.87500006 0.095000058 1.9050001 8413248
0.87500006 0.10500006 1.9050001 9465936
0.88500005 0.095000058 1.8950001 6311984
0.88500005 0.095000058 1.9050001 7360560
0.88500005 0.10500006 1.8950001 7360576
0.88500005 0.10500006 1.9050001 7360560
0.86500007 0.12500006 1.835 8417376
0.86500007 0.12500006 1.845 8417376
0.86500007 0.11500006 1.865 6312000
0.86500007 0.12500006 1.855 7364688
0.86500007 0.12500006 1.865 8417376
0.85500008 0.14500006 1.845 10522752
0.86500007 0.13500006 1.835 9470064
0.86500007 0.13500006 1.845 9470064
0.86500007 0.14500006 1.835 10522752
0.86500007 0.14500006 1.845 10522752
0.85500008 0.13500006 1.855 8417376
0.85500008 0.13500006 1.865 10522736
0.85500008 0.14500006 1.855 10522752
0.86500007 0.13500006 1.855 8417376
0.86500007 0.13500006 1.865 9470064
0.86500007 0.14500006 1.865 9470064
0.87500006 0.11500006 1.835 7364688
0.87500006 0.11500006 1.845 7364688
0.87500006 0.12500006 1.835 8417376
0.87500006 0.11500006 1.855 7364688
0.87500006 0.11500006 1.865 7364688
0.86500007 0.11500006 1.875 8417360
0.86500007 0.12500006 1.875 8417376
0.86500007 0.12500006 1.8850001 9470048
0.86500007 0.14500006 1.875 9470064
0.87500006 0.11500006 1.875 6312000
0.87500006 0.11500006 1.8850001 8417360
0.87500006 0.12500006 1.8850001 9465952
0.87500006 0.11500006 1.8950001 9465952
0.87500006 0.11500006 1.9050001 10518640
0.87500006 0.12500006 1.9050001 10518640
0.87500006 0.13500006 1.8950001 10518640
0.87500006 0.13500006 1.9050001 10518640
0.87500006 0.14500006 1.9050001 9474160
0.89500004 -0.0049999403 1.9050001 4096
0.89500004 0.0050000595 1.9050001 4096
0.89500004 0.015000059 1.9050001 1052672
0.90500003 0.065000057 1.8850001 4206624
0.89500004 0.055000059 1.9050001 4206608
0.89500004 0.065000057 1.9050001 5255200
0.90500003 0.055000059 1.9050001 4206608
0.90500003 0.065000057 1.8950001 4206608
0.90500003 0.065000057 1.9050001 4206608
0.91500008 0.045000061 1.9050001 3153936
0.92500007 0.045000061 1.9050001 3153936
0.91500008 0.065000057 1.8850001 4206608
0.92500007 0.065000057 1.8850001 4206608
0.91500008 0.055000059 1.8950001 4202512
0.91500008 0.055000059 1.9050001 4202512
0.91500008 0.065000057 1.8950001 4206608
0.92500007 0.055000059 1.8950001 4206608
0.92500007 0.055000059 1.9050001 4202512
0.92500007 0.065000057 1.8950001 4206608
0.93500006 0.055000059 1.8950001 4206624
0.93500006 0.065000057 1.8950001 4206608
0.93500006 0.065000057 1.9050001 4206624
0.89500004 0.08500006 1.8150001 4206608
0.89500004 0.08500006 1.825 4206624
0.90500003 0.08500006 1.8150001 4206608
0.89500004 0.095000058 1.7950001 7360576
0.89500004 0.095000058 1.8050001 6311984
0.89500004 0.10500006 1.7950001 6307888
0.89500004 0.10500006 1.8050001 7364672
0.90500003 0.095000058 1.7950001 6307888
0.90500003 0.095000058 1.8050001 5259296
0.90500003 0.10500006 1.7950001 5255200
0.89500004 0.10500006 1.8150001 8413264
0.91500008 0.08500006 1.8150001 4206624
0.91500008 0.095000058 1.8050001 5259296
0.91500008 0.10500006 1.7950001 5259296
0.91500008 0.10500006 1.8050001 5259296
0.92500007 0.095000058 1.8050001 6307872
0.92500007 0.10500006 1.7950001 6307872
0.92500007 0.10500006 1.8050001 5259296
0.89500004 0.12500006 1.7850001 5255200
0.90500003 0.11500006 1.7850001 5255200
0.90500003 0.12500006 1.7850001 5255200
0.89500004 0.13500006 1.7850001 7360576
0.89500004 0.14500006 1.7850001 6307888
0.90500003 0.13500006 1.7850001 6307872
0.90500003 0.14500006 1.7750001 6307888
0.90500003 0.14500006 1.7850001 6307888
0.91500008 0.13500006 1.7850001 5259296
0.91500008 0.14500006 1.7850001 4206608
0.92500007 0.13500006 1.7850001 6307888
0.92500007 0.14500006 1.7850001 6307872
0.89500004 0.11500006 1.7950001 6307888
0.89500004 0.11500006 1.8050001 7360560
0.89500004 0.12500006 1.7950001 6303776
0.90500003 0.11500006 1.7950001 5255200
0.90500003 0.12500006 1.7950001 5255200
0.89500004 0.13500006 1.7950001 8413248
0.89500004 0.14500006 1.7950001 7356464
0.91500008 0.11500006 1.7950001 5255200
0.91500008 0.12500006 1.7950001 5255184
0.92500007 0.11500006 1.7950001 5255200
0.92500007 0.12500006 1.7950001 5255200
0.92500007 0.14500006 1.7950001 5255200
0.93500006 0.10500006 1.8050001 5259296
0.93500006 0.095000058 1.8150001 5259296
0.93500006 0.095000058 1.825 5259296
0.93500006 0.10500006 1.8150001 5259296
0.94500005 0.095000058 1.825 5259296
0.94500005 0.10500006 1.8150001 5259296
0.94500005 0.10500006 1.825 5259296
0.95500004 0.10500006 1.825 6307872
0.95500004 0.13500006 1.7850001 7364656
0.93500006 0.11500006 1.7950001 5255184
0.93500006 0.11500006 1.8050001 5259296
0.93500006 0.12500006 1.7950001 6311984
0.94500005 0.11500006 1.7950001 6311984
0.94500005 0.11500006 1.8050001 6307872
0.94500005 0.12500006 1.7950001 6311984
0.93500006 0.13500006 1.7950001 7360560
0.93500006 0.14500006 1.7950001 7360560
0.94500005 0.13500006 1.7950001 7360560
0.94500005 0.14500006 1.7950001 7360560
0.95500004 0.11500006 1.8050001 6311984
0.95500004 0.12500006 1.8050001 7360560
0.96500003 0.12500006 1.8050001 7360560
0.95500004 0.11500006 1.8150001 6311984
0.96500003 0.11500006 1.825 6311984
0.95500004 0.13500006 1.7950001 7360560
0.95500004 0.14500006 1.7950001 7364672
0.96500003 0.13500006 1.7950001 7364656
0.96500003 0.14500006 1.7950001 7360560
0.96500003 0.14500006 1.8050001 7364656
0.89500004 0.08500006 1.845 4206624
0.90500003 0.08500006 1.835 3153936
0.90500003 0.08500006 1.845 3153936
0.90500003 0.08500006 1.855 3153936
0.90500003 0.08500006 1.865 4210720
0.89500004 0.095000058 1.855 5259312
0.91500008 0.08500006 1.835 3153936
0.92500007 0.08500006 1.845 3158032
0.89500004 0.08500006 1.8850001 4206624
0.90500003 0.075000063 1.8850001 4202512
0.90500003 0.08500006 1.875 5259312
0.90500003 0.08500006 1.8850001 4206624
0.89500004 0.075000063 1.8950001 5255200
0.89500004 0.075000063 1.9050001 5259296
0.89500004 0.08500006 1.8950001 5255200
0.90500003 0.075000063 1.8950001 4206608
0.90500003 0.08500006 1.8950001 4206608
0.89500004 0.095000058 1.875 5259312
0.89500004 0.095000058 1.8850001 5259312
0.91500008 0.075000063 1.8850001 3153936
0.91500008 0.08500006 1.875 4206624
0.91500008 0.08500006 1.8850001 4206624
0.92500007 0.075000063 1.875 3153936
0.92500007 0.075000063 1.8850001 3153936
0.93500006 0.08500006 1.835 3153936
0.94500005 0.095000058 1.845 5259296
0.96500003 0.10500006 1.835 6311968
0.96500003 0.10500006 1.845 6307872
0.96500003 0.095000058 1.865 5259296
0.93500006 0.075000063 1.8850001 3153936
0.94500005 0.075000063 1.8850001 3153936
0.94500005 0.08500006 1.875 3158032
0.94500005 0.075000063 1.9050001 3158032
0.96500003 0.08500006 1.8950001 4206624
0.86500007 0.28500006 1.745 4206624
0.90500003 0.26500005 1.725 2105360
0.89500004 0.26500005 1.745 2105360
0.90500003 0.26500005 1.735 2105360
0.90500003 0.26500005 1.745 2105360
0.91500008 0.26500005 1.725 2105360
0.91500008 0.25500005 1.745 2105360
0.91500008 0.26500005 1.735 2105360
0.91500008 0.26500005 1.745 2105360
0.89500004 0.27500007 1.745 2105360
0.90500003 0.27500007 1.735 3158048
0.90500003 0.27500007 1.745 2105360
0.92500007 0.27500007 1.745 3158032
0.93500006 0.25500005 1.715 2105360
0.93500006 0.26500005 1.745 2105360
0.95500004 0.25500005 1.745 2105360
0.86500007 0.15500006 1.8150001 10522736
0.86500007 0.15500006 1.825 10522752
0.86500007 0.16500007 1.8150001 10518640
0.86500007 0.16500007 1.825 10518640
0.86500007 0.17500006 1.8150001 10518640
0.86500007 0.17500006 1.825 10522752
0.86500007 0.18500006 1.825 12624016
0.87500006 0.15500006 1.8050001 10518624
0.87500006 0.16500007 1.8050001 10518640
0.88500005 0.15500006 1.7950001 9465936
0.88500005 0.15500006 1.8050001 9465936
0.88500005 0.16500007 1.7950001 10518624
0.88500005 0.16500007 1.8050001 10518624
0.87500006 0.15500006 1.8150001 10518640
0.87500006 0.15500006 1.825 10522752
0.87500006 0.16500007 1.8150001 10518624
0.87500006 0.16500007 1.825 10518640
0.88500005 0.16500007 1.8150001 10518624
0.88500005 0.17500006 1.8050001 9465936
0.88500005 0.18500006 1.8050001 6307888
0.87500006 0.17500006 1.8150001 10514528
0.87500006 0.18500006 1.8150001 10518624
0.87500006 0.18500006 1.825 12619904
0.88500005 0.17500006 1.8150001 9465936
0.88500005 0.18500006 1.8150001 8409152
0.86500007 0.19500005 1.825 11571328
0.86500007 0.21500006 1.8150001 9470064
0.86500007 0.21500006 1.825 10522752
0.86500007 0.22500005 1.8150001 11571328
0.86500007 0.22500005 1.825 10522752
0.87500006 0.20500006 1.8050001 5255200
0.88500005 0.19500005 1.8050001 6312000
0.88500005 0.20500006 1.7950001 4206624
0.88500005 0.20500006 1.8050001 3158032
0.87500006 0.19500005 1.8150001 6312000
0.87500006 0.19500005 1.825 9465952
0.87500006 0.20500006 1.8150001 6307904
0.87500006 0.20500006 1.825 5259312
0.88500005 0.19500005 1.8150001 4206624
0.88500005 0.19500005 1.825 7364688
0.88500005 0.20500006 1.8150001 2101248
0.88500005 0.20500006 1.825 4206624
0.87500006 0.21500006 1.7950001 5259296
0.87500006 0.21500006 1.8050001 6311984
0.87500006 0.22500005 1.8050001 10518624
0.88500005 0.21500006 1.7950001 4206608
0.88500005 0.22500005 1.7950001 11571312
0.87500006 0.21500006 1.8150001 8413264
0.87500006 0.22500005 1.8150001 11571328
0.84500009 0.18500006 1.9050001 1056768
0.86500007 0.15500006 1.835 10522752
0.86500007 0.15500006 1.845 10522752
0.86500007 0.16500007 1.835 10522752
0.86500007 0.16500007 1.845 10522752
0.85500008 0.15500006 1.855 10522752
0.86500007 0.15500006 1.855 10522752
0.86500007 0.16500007 1.855 10522752
0.86500007 0.16500007 1.865 10522752
0.85500008 0.17500006 1.835 10522752
0.85500008 0.17500006 1.845 10522752
0.86500007 0.17500006 1.835 10522752
0.86500007 0.18500006 1.835 11575440
0.86500007 0.18500006 1.845 11571328
0.86500007 0.17500006 1.855 10522752
0.86500007 0.18500006 1.855 10522752
0.86500007 0.18500006 1.865 10522752
0.86500007 0.15500006 1.8850001 9470064
0.86500007 0.16500007 1.8850001 9470064
0.86500007 0.16500007 1.9050001 2105360
0.85500008 0.17500006 1.9050001 1056768
0.86500007 0.17500006 1.9050001 10518640
0.87500006 0.16500007 1.8850001 11571328
0.87500006 0.15500006 1.9050001 9470064
0.87500006 0.16500007 1.8950001 8417376
0.87500006 0.16500007 1.9050001 7364688
0.87500006 0.17500006 1.8850001 10518640
0.87500006 0.18500006 1.8850001 10518640
0.87500006 0.17500006 1.8950001 9465952
0.87500006 0.17500006 1.9050001 10514528
0.87500006 0.18500006 1.8950001 10518640
0.87500006 0.18500006 1.9050001 8413264
0.85500008 0.19500005 1.835 10522752
0.85500008 0.20500006 1.835 9474176
0.85500008 0.20500006 1.845 1052672
0.86500007 0.19500005 1.835 11575440
0.86500007 0.19500005 1.845 11571328
0.86500007 0.20500006 1.835 10522752
0.86500007 0.19500005 1.855 7360576
0.86500007 0.19500005 1.865 9465952
0.86500007 0.20500006 1.855 4210736
0.85500008 0.21500006 1.835 4210736
0.85500008 0.22500005 1.835 4206624
0.85500008 0.22500005 1.845 2105360
0.86500007 0.21500006 1.835 10522752
0.86500007 0.22500005 1.835 9470064
0.87500006 0.20500006 1.835 9470064
0.86500007 0.19500005 1.875 10518640
0.86500007 0.20500006 1.875 4206624
0.86500007 0.20500006 1.8850001 9465952
0.86500007 0.20500006 1.8950001 7360592
0.86500007 0.20500006 1.9050001 8413264
0.85500008 0.21500006 1.875 2101264
0.85500008 0.21500006 1.8850001 3153936
0.86500007 0.21500006 1.8850001 7360592
0.85500008 0.21500006 1.9050001 2105360
0.86500007 0.21500006 1.8950001 3153936
0.87500006 0.19500005 1.8950001 9465952
0.87500006 0.19500005 1.9050001 5255200
0.87500006 0.20500006 1.9050001 8413264
0.88500005 0.26500005 1.7550001 2105344
0.88500005 0.26500005 1.7750001 2105360
0.88500005 0.26500005 1.7850001 2105344
0.85500008 0.24500006 1.825 3153936
0.86500007 0.23500006 1.825 9474160
0.86500007 0.24500006 1.825 9470064
0.86500007 0.26500005 1.8050001 3158048
0.86500007 0.26500005 1.8150001 3153936
0.87500006 0.23500006 1.8050001 11571312
0.88500005 0.23500006 1.8050001 11571312
0.88500005 0.24500006 1.8050001 11571312
0.87500006 0.23500006 1.8150001 11571312
0.87500006 0.23500006 1.825 10522736
0.87500006 0.24500006 1.8150001 11571312
0.87500006 0.24500006 1.825 10522736
0.88500005 0.24500006 1.8150001 10522736
0.88500005 0.25500005 1.8050001 10522736
0.87500006 0.25500005 1.8150001 9470048
0.87500006 0.25500005 1.825 9470048
0.87500006 0.26500005 1.8150001 5259296
0.87500006 0.26500005 1.825 5263408
0.88500005 0.25500005 1.8150001 9465952
0.88500005 0.25500005 1.825 8417360
0.88500005 0.26500005 1.8150001 5259296
0.86500007 0.27500007 1.7750001 2105360
0.87500006 0.27500007 1.7550001 4210720
0.88500005 0.27500007 1.7550001 3158048
0.88500005 0.27500007 1.7650001 2105344
0.87500006 0.27500007 1.7750001 3158032
0.87500006 0.27500007 1.7850001 3158048
0.87500006 0.28500006 1.7750001 3158048
0.88500005 0.27500007 1.7750001 3153936
0.88500005 0.27500007 1.7850001 2105360
0.87500006 0.27500007 1.7950001 2105360
0.87500006 0.27500007 1.8050001 2105360
0.88500005 0.27500007 1.7950001 2105360
0.88500005 0.27500007 1.8050001 3153936
0.84500009 0.24500006 1.855 2109472
0.84500009 0.24500006 1.865 2109456
0.85500008 0.24500006 1.835 2105360
0.85500008 0.24500006 1.845 2105360
0.86500007 0.23500006 1.835 6316112
0.86500007 0.23500006 1.845 2105360
0.86500007 0.24500006 1.835 5263424
0.86500007 0.24500006 1.845 2105360
0.85500008 0.24500006 1.855 2105360
0.85500008 0.24500006 1.865 3158048
0.86500007 0.23500006 1.855 2105360
0.85500008 0.25500005 1.835 4206624
0.85500008 0.25500005 1.845 3158032
0.85500008 0.26500005 1.835 4210736
0.86500007 0.25500005 1.835 4210720
0.86500007 0.25500005 1.845 3158048
0.86500007 0.26500005 1.835 2105360
0.86500007 0.26500005 1.845 3158048
0.85500008 0.25500005 1.855 3158048
0.85500008 0.25500005 1.865 3158048
0.87500006 0.24500006 1.835 9474160
0.87500006 0.25500005 1.835 8417376
0.87500006 0.26500005 1.835 5263424
0.87500006 0.26500005 1.855 2105360
0.85500008 0.24500006 1.8850001 2109472
0.85500008 0.25500005 1.875 1052688
0.87500006 0.23500006 1.875 2105376
0.89500004 0.16500007 1.7650001 12624016
0.90500003 0.15500006 1.7650001 8413248
0.89500004 0.15500006 1.7750001 10518640
0.89500004 0.15500006 1.7850001 9465936
0.89500004 0.16500007 1.7750001 12624000
0.89500004 0.16500007 1.7850001 11571328
0.90500003 0.16500007 1.7750001 11571312
0.89500004 0.17500006 1.7650001 12624000
0.89500004 0.17500006 1.7750001 11571328
0.89500004 0.17500006 1.7850001 11571312
0.90500003 0.17500006 1.7750001 11571312
0.90500003 0.18500006 1.7750001 11571312
0.90500003 0.18500006 1.7850001 10518640
0.91500008 0.15500006 1.7750001 8413248
0.91500008 0.16500007 1.7750001 9461840
0.91500008 0.16500007 1.7850001 10514528
0.92500007 0.15500006 1.7850001 7360560
0.92500007 0.16500007 1.7850001 8409152
0.91500008 0.17500006 1.7750001 7360560
0.91500008 0.17500006 1.7850001 9461840
0.91500008 0.18500006 1.7750001 8413248
0.91500008 0.18500006 1.7850001 10514512
0.92500007 0.17500006 1.7850001 6307872
0.92500007 0.18500006 1.7850001 4202512
0.89500004 0.15500006 1.7950001 12624000
0.89500004 0.16500007 1.7950001 11567216
0.89500004 0.17500006 1.7950001 10518640
0.89500004 0.17500006 1.8050001 10518624
0.89500004 0.18500006 1.7950001 6307888
0.89500004 0.18500006 1.8050001 5259296
0.90500003 0.18500006 1.7950001 7360576
0.92500007 0.15500006 1.7950001 7360560
0.92500007 0.18500006 1.7950001 6307872
0.90500003 0.19500005 1.7850001 8417360
0.90500003 0.20500006 1.7850001 6307888
0.89500004 0.21500006 1.7850001 7360576
0.89500004 0.22500005 1.7850001 10522720
0.90500003 0.21500006 1.7850001 8413248
0.90500003 0.22500005 1.7850001 10518608
0.91500008 0.19500005 1.7850001 9465936
0.91500008 0.20500006 1.7850001 7360560
0.92500007 0.19500005 1.7850001 5255200
0.92500007 0.20500006 1.7850001 6311984
0.91500008 0.21500006 1.7850001 8413248
0.91500008 0.22500005 1.7850001 9465936
0.92500007 0.21500006 1.7750001 8413264
0.92500007 0.21500006 1.7850001 8417360
0.92500007 0.22500005 1.7750001 7360560
0.92500007 0.22500005 1.7850001 8413248
0.89500004 0.19500005 1.7950001 4206608
0.89500004 0.19500005 1.8050001 4206624
0.89500004 0.20500006 1.7950001 4206624
0.89500004 0.20500006 1.8050001 3153936
0.90500003 0.19500005 1.7950001 5259296
0.90500003 0.20500006 1.7950001 5259312
0.89500004 0.21500006 1.7950001 5259296
0.89500004 0.22500005 1.7950001 11571312
0.89500004 0.22500005 1.8050001 11571312
0.92500007 0.19500005 1.7950001 5255184
0.93500006 0.16500007 1.7850001 7360560
0.94500005 0.15500006 1.7850001 8409136
0.94500005 0.18500006 1.7750001 6312000
0.94500005 0.18500006 1.7850001 4210736
0.95500004 0.18500006 1.7850001 4206608
0.93500006 0.15500006 1.7950001 7360560
0.93500006 0.16500007 1.7950001 8409152
0.94500005 0.15500006 1.7950001 8409152
0.94500005 0.16500007 1.7950001 7360560
0.93500006 0.17500006 1.7950001 5255200
0.93500006 0.18500006 1.7950001 3153936
0.94500005 0.17500006 1.7950001 5255200
0.94500005 0.18500006 1.7950001 5259312
0.95500004 0.15500006 1.7950001 7360560
0.95500004 0.16500007 1.7950001 7360560
0.96500003 0.15500006 1.7950001 7360560
0.96500003 0.16500007 1.7950001 7360560
0.95500004 0.17500006 1.7950001 5259296
0.96500003 0.17500006 1.7950001 6311984
0.96500003 0.18500006 1.7950001 4206608
0.93500006 0.20500006 1.7750001 5259296
0.93500006 0.20500006 1.7850001 4206608
0.94500005 0.19500005 1.7750001 5263424
0.94500005 0.19500005 1.7850001 3153936
0.94500005 0.20500006 1.7750001 4206624
0.94500005 0.20500006 1.7850001 4206608
0.93500006 0.21500006 1.7750001 8413248
0.93500006 0.22500005 1.7750001 7360560
0.93500006 0.22500005 1.7850001 7360560
0.94500005 0.21500006 1.7750001 7364672
0.94500005 0.22500005 1.7750001 6311984
0.95500004 0.20500006 1.7650001 4206624
0.96500003 0.19500005 1.7650001 5263408
0.95500004 0.19500005 1.7850001 3158032
0.95500004 0.20500006 1.7750001 4210720
0.96500003 0.19500005 1.7750001 6311984
0.96500003 0.19500005 1.7850001 5259296
0.96500003 0.20500006 1.7750001 4206624
0.95500004 0.21500006 1.7750001 6311984
0.95500004 0.22500005 1.7750001 6311984
0.96500003 0.21500006 1.7750001 6311984
0.96500003 0.22500005 1.7750001 6311984
0.96500003 0.22500005 1.7850001 6311984
0.93500006 0.19500005 1.7950001 3153920
0.94500005 0.19500005 1.7950001 2101248
0.90500003 0.23500006 1.7850001 10518608
0.89500004 0.26500005 1.7550001 2105360
0.90500003 0.26500005 1.7550001 2105360
0.90500003 0.26500005 1.7650001 2105360
0.89500004 0.26500005 1.7750001 2105360
0.89500004 0.26500005 1.7850001 2105360
0.90500003 0.26500005 1.7750001 2105360
0.90500003 0.26500005 1.7850001 2105360
0.91500008 0.23500006 1.7850001 9465920
0.92500007 0.23500006 1.7850001 7360560
0.92500007 0.24500006 1.7750001 4206624
0.92500007 0.24500006 1.7850001 5259296
0.91500008 0.25500005 1.7550001 2105360
0.91500008 0.26500005 1.7550001 2105360
0.91500008 0.26500005 1.7650001 2105360
0.92500007 0.25500005 1.7550001 2105360
0.92500007 0.25500005 1.7650001 2105360
0.92500007 0.26500005 1.7550001 3158048
0.91500008 0.25500005 1.7850001 4206624
0.91500008 0.26500005 1.7750001 2105360
0.92500007 0.25500005 1.7750001 3153936
0.92500007 0.25500005 1.7850001 3153936
0.89500004 0.23500006 1.7950001 11571312
0.89500004 0.23500006 1.8050001 11571312
0.89500004 0.24500006 1.7950001 10518624
0.89500004 0.24500006 1.8050001 10522720
0.90500003 0.23500006 1.7950001 11571296
0.90500003 0.24500006 1.7950001 9465936
0.89500004 0.25500005 1.8050001 9465936
0.89500004 0.26500005 1.7950001 3158032
0.89500004 0.26500005 1.8050001 4206624
0.90500003 0.25500005 1.7950001 7360576
0.90500003 0.25500005 1.8050001 8413248
0.90500003 0.26500005 1.7950001 3158032
0.89500004 0.25500005 1.8150001 8413248
0.89500004 0.26500005 1.8150001 5259296
0.91500008 0.24500006 1.7950001 8413248
0.92500007 0.23500006 1.7950001 6311984
0.92500007 0.24500006 1.7950001 6307872
0.91500008 0.25500005 1.7950001 5259312
0.91500008 0.26500005 1.7950001 4206608
0.89500004 0.27500007 1.7550001 2105360
0.89500004 0.27500007 1.7650001 2105360
0.90500003 0.27500007 1.7550001 2105360
0.90500003 0.28500006 1.7650001 2105360
0.91500008 0.27500007 1.8050001 2105360
0.93500006 0.24500006 1.7650001 3153936
0.93500006 0.23500006 1.7750001 5259296
0.93500006 0.23500006 1.7850001 6307872
0.93500006 0.24500006 1.7750001 4206608
0.93500006 0.24500006 1.7850001 4206608
0.94500005 0.23500006 1.7750001 5259296
0.94500005 0.23500006 1.7850001 5259296
0.94500005 0.24500006 1.7750001 3158032
0.93500006 0.25500005 1.7550001 2105360
0.93500006 0.25500005 1.7650001 2105360
0.93500006 0.26500005 1.7550001 2105360
0.94500005 0.25500005 1.7550001 2105344
0.94500005 0.25500005 1.7650001 2105360
0.93500006 0.25500005 1.7750001 3158032
0.95500004 0.24500006 1.7550001 2105360
0.95500004 0.24500006 1.7650001 3153936
0.96500003 0.24500006 1.7650001 2105344
0.95500004 0.23500006 1.7750001 5259296
0.95500004 0.23500006 1.7850001 6307872
0.95500004 0.24500006 1.7750001 4206608
0.96500003 0.23500006 1.7750001 5259296
0.96500003 0.23500006 1.7850001 6307888
0.96500003 0.24500006 1.7750001 3153936
0.95500004 0.25500005 1.7550001 2105344
0.95500004 0.25500005 1.7650001 2105344
0.95500004 0.26500005 1.7650001 2105344
0.93500006 0.27500007 1.7550001 3158048
0.98500007 0.0050000595 1.605 7364656
0.98500007 0.0050000595 1.615 9470032
0.98500007 0.0050000595 1.625 9465920
0.98500007 0.015000059 1.605 7364672
0.98500007 0.015000059 1.615 10518624
0.98500007 0.015000059 1.625 7364656
0.98500007 0.02500006 1.625 7364656
0.99500006 -0.0049999403 1.615 6311984
0.99500006 -0.0049999403 1.625 8413248
0.99500006 0.0050000595 1.615 2101264
0.99500006 0.0050000595 1.625 9465936
0.99500006 0.015000059 1.615 8417344
0.99500006 0.015000059 1.625 9465936
0.99500006 0.02500006 1.615 4210720
0.99500006 0.02500006 1.625 8413248
0.97500008 -0.0049999403 1.6350001 5255184
0.97500008 -0.0049999403 1.6450001 6307872
0.97500008 0.0050000595 1.6350001 7360560
0.97500008 0.0050000595 1.6450001 7360560
0.98500007 -0.0049999403 1.6350001 7360560
0.98500007 -0.0049999403 1.6450001 6307872
0.98500007 0.0050000595 1.6350001 7360544
0.97500008 -0.0049999403 1.6550001 7360560
0.97500008 0.015000059 1.6350001 10518608
0.97500008 0.015000059 1.6450001 7364656
0.97500008 0.02500006 1.6350001 10522720
0.97500008 0.02500006 1.6450001 9465920
0.98500007 0.015000059 1.6350001 9465920
0.98500007 0.02500006 1.6350001 10518624
0.99500006 -0.0049999403 1.6350001 8417344
0.99500006 0.0050000595 1.6350001 10518624
0.99500006 0.015000059 1.6350001 8417344
0.99500006 0.02500006 1.6350001 6307872
0.97500008 0.045000061 1.595 8421456
0.98500007 0.03500006 1.605 8417344
0.98500007 0.045000061 1.625 9465920
0.99500006 0.03500006 1.625 8417344
0.97500008 0.03500006 1.6450001 9465936
0.97500008 0.045000061 1.6450001 11571296
0.98500007 0.03500006 1.6350001 11571312
0.98500007 0.03500006 1.6450001 9465936
0.98500007 0.045000061 1.6350001 12623984
0.98500007 0.045000061 1.6450001 8417344
0.97500008 0.045000061 1.6550001 11571312
0.97500008 0.045000061 1.6650001 11575424
0.98500007 0.045000061 1.6550001 10518608
0.97500008 0.055000059 1.6450001 11567200
0.97500008 0.065000057 1.6450001 11571296
0.98500007 0.055000059 1.6350001 7360560
0.98500007 0.055000059 1.6450001 8413232
0.98500007 0.065000057 1.6450001 9465936
0.97500008 0.055000059 1.6550001 12628112
0.97500008 0.055000059 1.6650001 11575424
0.97500008 0.065000057 1.6550001 13676688
0.97500008 0.065000057 1.6650001 11571280
0.98500007 0.065000057 1.6550001 11571312
0.99500006 0.045000061 1.6350001 9465936
0.99500006 0.055000059 1.6350001 10518624
0.99500006 0.055000059 1.6450001 11575424
0.99500006 0.065000057 1.6550001 11571312
1.0050001 0.055000059 1.6550001 11575424
1.0150001 0.065000057 1.6650001 14733488
0.97500008 0.02500006 1.6950001 11571312
0.97500008 0.02500006 1.705 8417360
0.97500008 0.03500006 1.6850001 12632240
0.97500008 0.045000061 1.6750001 11579536
0.97500008 0.045000061 1.6850001 9474160
0.97500008 0.03500006 1.6950001 10522736
0.97500008 0.045000061 1.6950001 7364672
0.97500008 0.045000061 1.705 8417344
0.98500007 0.03500006 1.705 10526848
0.97500008 0.055000059 1.6750001 11575440
0.97500008 0.055000059 1.6850001 9470032
0.97500008 0.065000057 1.6750001 10518608
0.97500008 0.065000057 1.6850001 9465904
0.97500008 0.055000059 1.6950001 8417328
0.97500008 0.055000059 1.705 10522704
0.97500008 0.03500006 1.715 7360560
0.97500008 0.03500006 1.725 10518640
0.97500008 0.045000061 1.715 9465936
0.97500008 0.045000061 1.725 9470048
0.98500007 0.03500006 1.715 7360560
0.97500008 0.03500006 1.735 10522752
0.97500008 0.045000061 1.735 9465952
0.97500008 0.045000061 1.745 10539184
0.98500007 0.045000061 1.745 9474176
1.0150001 0.065000057 1.6850001 13680800
1.0250001 0.065000057 1.6850001 12632224
1.0250001 0.065000057 1.6950001 13680800
1.0350001 0.065000057 1.6850001 11579536
1.0350001 0.065000057 1.705 12628112
1.0450001 0.065000057 1.6950001 6316112
1.0450001 0.065000057 1.705 11579536
0.98500007 0.075000063 1.6650001 12623984
0.97500008 0.075000063 1.6750001 11571264
0.97500008 0.075000063 1.6850001 11571264
0.97500008 0.08500006 1.6850001 13680752
0.98500007 0.075000063 1.6750001 11571280
0.98500007 0.075000063 1.6850001 11571280
0.98500007 0.08500006 1.6850001 12628064
0.97500008 0.08500006 1.6950001 14737584
0.97500008 0.08500006 1.705 12632208
0.98500007 0.08500006 1.6950001 14733456
0.98500007 0.095000058 1.705 14737584
0.99500006 0.075000063 1.6750001 13680784
0.99500006 0.08500006 1.6850001 11575408
0.99500006 0.08500006 1.6950001 13684880
1.0050001 0.08500006 1.6950001 11579520
0.99500006 0.095000058 1.705 13680784
0.97500008 0.095000058 1.715 14737584
0.98500007 0.095000058 1.715 14737600
0.98500007 0.095000058 1.725 10535056
0.98500007 0.10500006 1.715 13688992
0.98500007 0.10500006 1.725 4227136
0.99500006 0.095000058 1.715 13684880
0.99500006 0.095000058 1.725 13684896
0.99500006 0.10500006 1.715 13684880
0.99500006 0.10500006 1.725 13684896
1.0050001 0.095000058 1.715 12632208
1.0050001 0.10500006 1.725 9474160
1.0150001 0.075000063 1.6950001 12628112
1.0150001 0.075000063 1.705 13680784
1.0350001 0.075000063 1.705 12632224
1.0450001 0.075000063 1.705 12636352
1.0250001 0.08500006 1.725 13680800
1.0250001 0.08500006 1.735 12628096
1.0150001 0.095000058 1.715 14733456
1.0350001 0.075000063 1.715 12632224
1.0350001 0.075000063 1.725 13684912
1.0450001 0.075000063 1.715 13684928
1.0450001 0.075000063 1.725 13684928
1.0450001 0.08500006 1.715 12632240
1.0450001 0.08500006 1.725 12632240
1.0350001 0.08500006 1.735 12628112
1.0350001 0.08500006 1.745 12628112
1.0450001 0.08500006 1.735 12628128
1.0450001 0.08500006 1.745 11579536
1.0450001 0.095000058 1.725 12636336
1.0350001 0.095000058 1.745 10526832
1.0450001 0.10500006 1.735 13689024
1.0450001 0.10500006 1.745 13689040
1.0550001 0.075000063 1.715 10526864
1.0550001 0.075000063 1.725 13684928
1.0550001 0.08500006 1.725 8421488
1.0550001 0.08500006 1.735 12632240
1.0550001 0.08500006 1.745 12632224
1.0550001 0.095000058 1.745 9474176
0.98500007 0.02500006 1.7650001 13689040
0.97500008 0.03500006 1.7550001 13684928
0.98500007 0.045000061 1.7550001 10530976
1.0250001 -0.0049999403 1.875 0
1.0250001 0.045000061 1.845 4096
0.97500008 0.14500006 1.8050001 7364656
1.0450001 0.08500006 1.7550001 11579536
1.0450001 0.095000058 1.7550001 11579536
1.0450001 0.095000058 1.7650001 12636320
1.0450001 0.10500006 1.7550001 12640448
0.97500008 0.10500006 1.865 6307872
0.98500007 0.10500006 1.855 5263392
0.98500007 0.095000058 1.9050001 2105360
1.0550001 0.095000058 1.7550001 12636336
0.97500008 0.18500006 1.7850001 7364672
0.97500008 0.15500006 1.8050001 7360560
0.98500007 0.15500006 1.825 6311984
0.97500008 0.17500006 1.7950001 6307888
0.97500008 0.17500006 1.8050001 7360560
0.97500008 0.18500006 1.7950001 5259296
0.98500007 0.18500006 1.8050001 6312000
0.98500007 0.17500006 1.8150001 7360576
0.99500006 0.16500007 1.825 7360576
0.99500006 0.18500006 1.825 6312000
0.97500008 0.21500006 1.7750001 5259296
0.97500008 0.22500005 1.7850001 6311984
0.98500007 0.19500005 1.8150001 6312000
0.98500007 0.21500006 1.7950001 4210720
0.98500007 0.22500005 1.8050001 6307888
0.99500006 0.22500005 1.8050001 4206608
0.99500006 0.21500006 1.8150001 5259312
0.99500006 0.15500006 1.835 6311984
0.99500006 0.16500007 1.835 7360560
1.0050001 0.15500006 1.845 2101248
1.0050001 0.16500007 1.855 7360560
1.0050001 0.17500006 1.835 6311984
1.0050001 0.17500006 1.845 6311984
1.0150001 0.16500007 1.855 3153936
1.0150001 0.18500006 1.845 5255200
1.0150001 0.17500006 1.855 4202512
0.97500008 0.23500006 1.7850001 5259296
0.97500008 0.24500006 1.7750001 3153936
0.97500008 0.24500006 1.7850001 3158032
0.98500007 0.23500006 1.7950001 4206608
0.98500007 0.23500006 1.8050001 5259296
0.98500007 0.24500006 1.7950001 2101248
0.99500006 0.23500006 1.7950001 2101248
0.99500006 0.23500006 1.8050001 4206608
0.78500009 0.075000063 1.9150001 8413264
0.79500008 0.08500006 1.9150001 5255184
0.79500008 0.08500006 1.9250001 5255200
0.80500007 0.08500006 1.9250001 7356464
0.80500007 0.08500006 1.9350001 7360560
0.80500007 0.095000058 1.9350001 7360560
0.88500005 -0.0049999403 1.9150001 4096
0.85500008 0.065000057 1.9150001 1052672
0.86500007 0.055000059 1.9150001 1052672
0.86500007 0.065000057 1.9150001 1052672
0.87500006 0.045000061 1.9150001 1052672
0.88500005 0.03500006 1.9150001 1052672
0.88500005 0.045000061 1.9150001 2105360
0.87500006 0.055000059 1.9150001 2101248
0.87500006 0.065000057 1.9150001 3158048
0.88500005 0.055000059 1.9150001 4206608
0.88500005 0.065000057 1.9150001 5255200
0.81500006 0.08500006 1.9150001 7356464
0.81500006 0.095000058 1.9250001 7360560
0.82500005 0.095000058 1.9150001 7356464
0.82500005 0.095000058 1.9250001 7360560
0.82500005 0.10500006 1.9250001 8413248
0.81500006 0.095000058 1.9350001 7360560
0.81500006 0.095000058 1.9450001 8409152
0.81500006 0.10500006 1.9350001 9461824
0.81500006 0.10500006 1.9450001 9461824
0.82500005 0.10500006 1.9350001 9465936
0.82500005 0.10500006 1.9450001 10518624
0.83500004 0.08500006 1.9150001 5255200
0.84500009 0.075000063 1.9150001 1052688
0.84500009 0.08500006 1.9150001 1052688
0.83500004 0.095000058 1.9150001 7356464
0.83500004 0.095000058 1.9250001 7360560
0.83500004 0.10500006 1.9250001 8413248
0.84500009 0.095000058 1.9150001 4206624
0.84500009 0.095000058 1.9250001 7360560
0.84500009 0.10500006 1.9250001 8409136
0.83500004 0.10500006 1.9350001 10514512
0.84500009 0.10500006 1.9350001 9465936
0.81500006 0.10500006 1.955 9461840
0.81500006 0.10500006 1.965 10518624
0.82500005 0.11500006 1.9450001 12624000
0.83500004 0.11500006 1.9450001 11571312
0.82500005 0.11500006 1.955 13676688
0.82500005 0.12500006 1.955 8409152
0.83500004 0.11500006 1.955 14729376
0.83500004 0.12500006 1.955 8413248
0.83500004 0.12500006 1.965 9465936
0.84500009 0.11500006 1.955 12624000
0.84500009 0.11500006 1.965 14729376
0.84500009 0.12500006 1.975 11571312
0.84500009 0.13500006 1.975 8413248
0.85500008 0.075000063 1.9150001 1052688
0.85500008 0.08500006 1.9150001 1052688
0.86500007 0.075000063 1.9150001 2105360
0.86500007 0.08500006 1.9150001 4206624
0.85500008 0.095000058 1.9250001 3153936
0.85500008 0.10500006 1.9250001 7360560
0.86500007 0.095000058 1.9150001 8413248
0.86500007 0.095000058 1.9250001 6311984
0.86500007 0.10500006 1.9150001 10518608
0.86500007 0.10500006 1.9250001 8413232
0.85500008 0.10500006 1.9350001 9465936
0.86500007 0.10500006 1.9350001 9465936
0.87500006 0.075000063 1.9150001 6307888
0.87500006 0.08500006 1.9150001 7360560
0.87500006 0.095000058 1.9150001 9465936
0.87500006 0.10500006 1.9150001 10518624
0.87500006 0.10500006 1.9250001 10518624
0.86500007 0.11500006 1.9350001 9465936
0.86500007 0.11500006 1.9450001 10518624
0.87500006 0.11500006 1.9150001 10522736
0.87500006 0.11500006 1.9250001 9465936
0.87500006 0.12500006 1.9150001 9470048
0.87500006 0.12500006 1.9250001 9465936
0.87500006 0.11500006 1.9350001 9465936
0.87500006 0.11500006 1.9450001 10518624
0.87500006 0.12500006 1.9350001 8417360
0.87500006 0.12500006 1.9450001 9470032
0.87500006 0.13500006 1.9250001 7368784
0.87500006 0.14500006 1.9250001 6316112
0.87500006 0.13500006 1.9350001 6320208
0.85500008 0.11500006 1.965 12624000
0.86500007 0.11500006 1.955 11571312
0.86500007 0.11500006 1.965 11571312
0.85500008 0.12500006 1.975 13680800
0.87500006 0.12500006 1.965 8425584
0.87500006 0.12500006 1.975 10526848
0.87500006 0.12500006 1.985 3158048
0.87500006 0.13500006 1.965 3170368
0.87500006 0.13500006 1.985 5271632
0.85500008 0.12500006 1.995 11571328
0.86500007 0.12500006 1.995 13676688
0.86500007 0.12500006 2.0050001 9470048
0.85500008 0.13500006 1.995 8413248
0.86500007 0.13500006 1.995 7364672
0.87500006 0.12500006 1.995 7360576
0.87500006 0.12500006 2.0050001 4202512
0.87500006 0.13500006 1.995 6324304
0.89500004 -0.0049999403 1.9150001 4096
0.89500004 0.0050000595 1.9150001 4096
0.90500003 -0.0049999403 1.9150001 4096
0.90500003 0.0050000595 1.9250001 1052672
0.89500004 0.02500006 1.9150001 1052672
0.90500003 0.015000059 1.9150001 1052672
0.90500003 0.015000059 1.9250001 1052672
0.90500003 0.02500006 1.9350001 2105360
0.91500008 -0.0049999403 1.9250001 1052672
0.91500008 -0.0049999403 1.9350001 1052672
0.91500008 0.0050000595 1.9350001 1052672
0.92500007 -0.0049999403 1.9350001 1052672
0.92500007 0.0050000595 1.9450001 2101248
0.91500008 0.015000059 1.9350001 1052672
0.91500008 0.015000059 1.9450001 1052672
0.91500008 0.02500006 1.9350001 2101248
0.91500008 0.02500006 1.9450001 2101248
0.92500007 0.02500006 1.9350001 2101248
0.92500007 0.02500006 1.9450001 2101248
0.92500007 0.0050000595 1.955 2101248
0.92500007 0.015000059 1.955 1052672
0.89500004 0.03500006 1.9250001 2105360
0.89500004 0.045000061 1.9150001 3153936
0.90500003 0.03500006 1.9250001 3153936
0.90500003 0.045000061 1.9150001 3153936
0.89500004 0.055000059 1.9150001 4206608
0.90500003 0.055000059 1.9150001 4202512
0.91500008 0.03500006 1.9250001 3153936
0.91500008 0.045000061 1.9150001 3153936
0.92500007 0.03500006 1.9250001 3153936
0.92500007 0.045000061 1.9150001 3153936
0.91500008 0.03500006 1.9350001 3153936
0.92500007 0.03500006 1.9350001 3153920
0.94500005 -0.0049999403 1.9450001 1052672
0.93500006 0.02500006 1.9450001 2101248
0.95500004 -0.0049999403 1.9350001 4096
0.95500004 -0.0049999403 1.9450001 4096
0.96500003 -0.0049999403 1.9450001 4096
0.96500003 0.0050000595 1.9450001 0
0.93500006 -0.0049999403 1.955 1052672
0.93500006 0.0050000595 1.965 2101248
0.94500005 -0.0049999403 1.955 1052672
0.94500005 -0.0049999403 1.965 1052672
0.94500005 0.0050000595 1.965 1052672
0.94500005 0.0050000595 1.975 2101248
0.93500006 0.015000059 1.955 2101248
0.93500006 0.015000059 1.965 2101248
0.93500006 0.02500006 1.955 2101248
0.94500005 0.015000059 1.965 2101248
0.94500005 0.02500006 1.955 2105344
0.94500005 0.02500006 1.965 2101248
0.95500004 -0.0049999403 1.955 1052672
0.95500004 -0.0049999403 1.965 1052672
0.95500004 0.0050000595 1.955 1048576
0.95500004 0.0050000595 1.965 1052672
0.96500003 -0.0049999403 1.955 4096
0.96500003 0.0050000595 1.955 0
0.96500003 0.0050000595 1.965 1052672
0.95500004 0.0050000595 1.975 2101248
0.95500004 0.015000059 1.965 1052672
0.95500004 0.02500006 1.965 2105360
0.96500003 0.015000059 1.955 0
0.96500003 0.015000059 1.965 1052672
0.96500003 0.02500006 1.955 1048576
0.96500003 0.02500006 1.965 1052672
0.95500004 0.015000059 1.975 2101248
0.95500004 0.02500006 1.975 2101248
0.96500003 0.015000059 1.975 1052672
0.93500006 0.045000061 1.9150001 3153936
0.94500005 0.045000061 1.9250001 3153936
0.93500006 0.03500006 1.9350001 3153936
0.94500005 0.03500006 1.9450001 3153936
0.94500005 0.045000061 1.9350001 3153936
0.93500006 0.055000059 1.9150001 4206608
0.94500005 0.055000059 1.9150001 4206624
0.94500005 0.065000057 1.9150001 4206624
0.95500004 0.045000061 1.9450001 3158032
0.96500003 0.045000061 1.9450001 4206624
0.95500004 0.065000057 1.9250001 5255200
0.95500004 0.055000059 1.9350001 4206608
0.96500003 0.065000057 1.9450001 4206624
0.95500004 0.03500006 1.955 3153936
0.96500003 0.03500006 1.955 1052672
0.96500003 0.045000061 1.955 3153936
0.95500004 0.075000063 1.9150001 4206608
0.96500003 0.08500006 1.9150001 3153936
0.96500003 0.075000063 1.9350001 4206624
0.85500008 0.18500006 1.9150001 2105360
0.86500007 0.17500006 1.9150001 8413264
0.86500007 0.18500006 1.9150001 9465952
0.87500006 0.15500006 1.9150001 2105360
0.87500006 0.18500006 1.9150001 8413264
0.85500008 0.19500005 1.9150001 4206624
0.85500008 0.20500006 1.9150001 4206624
0.85500008 0.20500006 1.9250001 8192
0.86500007 0.19500005 1.9150001 8409152
0.86500007 0.20500006 1.9150001 9461856
0.86500007 0.20500006 1.9450001 12288
0.86500007 0.21500006 1.9150001 7360576
0.87500006 0.19500005 1.9150001 5255200
0.98500007 -0.0049999403 1.965 4096
0.98500007 0.0050000595 1.965 4096
0.97500008 0.015000059 1.955 0
0.97500008 0.02500006 1.955 0
0.98500007 0.015000059 1.965 4096
0.98500007 0.02500006 1.965 4096
1.0050001 -0.0049999403 1.955 0
1.0050001 -0.0049999403 1.965 0
1.0050001 0.0050000595 1.965 0
0.99500006 -0.0049999403 1.975 4096
0.99500006 0.0050000595 1.975 4096
1.0050001 -0.0049999403 1.975 0
1.0050001 0.0050000595 1.975 0
1.0050001 0.0050000595 1.985 0
0.99500006 0.015000059 1.975 4096
0.99500006 0.015000059 1.985 4096
0.99500006 0.02500006 1.975 4096
0.99500006 0.02500006 1.985 4096
1.0050001 0.015000059 1.975 0
1.0050001 0.015000059 1.985 0
1.0050001 0.02500006 1.975 0
1.0050001 0.02500006 1.985 0
0.97500008 0.065000057 1.9450001 4206624
0.97500008 0.03500006 1.955 1048576
0.97500008 0.045000061 1.965 1048576
0.98500007 0.03500006 1.965 1052672
0.98500007 0.045000061 1.965 1052672
0.97500008 0.055000059 1.955 3158032
0.97500008 0.055000059 1.965 3153936
0.97500008 0.065000057 1.955 4206624
0.98500007 0.055000059 1.965 2101248
0.98500007 0.065000057 1.965 4206624
0.99500006 0.03500006 1.975 4096
0.99500006 0.045000061 1.975 0
1.0050001 0.03500006 1.985 0
1.0050001 0.045000061 1.985 4096
0.99500006 0.055000059 1.975 1048576
0.99500006 0.065000057 1.975 2101248
1.0050001 0.055000059 1.985 1052672
1.0050001 0.065000057 1.985 1052672
1.0150001 -0.0049999403 1.9450001 4096
1.0150001 0.0050000595 1.9450001 1052672
1.0150001 0.0050000595 1.955 4096
1.0250001 -0.0049999403 1.955 1052672
1.0250001 0.0050000595 1.955 4096
1.0150001 0.015000059 1.955 4096
1.0150001 0.015000059 1.965 0
1.0150001 0.02500006 1.965 4096
1.0250001 0.015000059 1.955 4096
1.0250001 0.02500006 1.965 1052672
1.0150001 0.02500006 1.975 0
1.0350001 -0.0049999403 1.955 1052672
1.0350001 0.0050000595 1.955 1052672
1.0450001 -0.0049999403 1.955 4096
1.0450001 0.0050000595 1.955 1052672
1.0350001 0.015000059 1.955 1052672
1.0350001 0.015000059 1.965 1052672
1.0350001 0.02500006 1.965 1052672
1.0450001 0.015000059 1.955 4096
1.0450001 0.015000059 1.965 1052672
1.0450001 0.02500006 1.965 1052672
1.0150001 0.03500006 1.965 4096
1.0150001 0.045000061 1.965 4096
1.0250001 0.03500006 1.965 4096
1.0250001 0.045000061 1.965 4096
1.0150001 0.03500006 1.975 4096
1.0150001 0.03500006 1.985 0
1.0150001 0.045000061 1.975 4096
1.0150001 0.045000061 1.985 0
1.0250001 0.055000059 1.965 4096
1.0150001 0.055000059 1.975 4096
1.0150001 0.055000059 1.985 0
1.0150001 0.065000057 1.975 4096
1.0150001 0.065000057 1.985 0
1.0250001 0.055000059 1.975 4096
1.0250001 0.065000057 1.975 4096
1.0350001 0.03500006 1.965 1052672
1.0350001 0.045000061 1.965 1052672
1.0450001 0.03500006 1.965 1052672
1.0450001 0.045000061 1.965 1052672
1.0350001 0.055000059 1.965 4096
1.0450001 0.055000059 1.965 1052672
1.0450001 0.065000057 1.965 1052672
1.0350001 0.055000059 1.975 4096
1.0350001 0.065000057 1.975 4096
0.97500008 0.075000063 1.9450001 4206624
0.99500006 0.10500006 1.9150001 5259296
0.99500006 0.095000058 1.9450001 4206624
0.98500007 0.075000063 1.965 4206624
0.98500007 0.08500006 1.955 3158032
0.99500006 0.075000063 1.965 4206624
1.0050001 0.08500006 1.965 3153936
0.99500006 0.075000063 1.975 4206624
1.0050001 0.075000063 1.975 1052672
1.0050001 0.075000063 1.985 1052672
1.0050001 0.08500006 1.975 2101248
1.0050001 0.095000058 1.955 4206608
1.0150001 0.10500006 1.9250001 5259312
1.0150001 0.10500006 1.9350001 5259296
1.0150001 0.08500006 1.965 1052672
1.0150001 0.075000063 1.985 1052672
1.0150001 0.08500006 1.975 1052672
1.0250001 0.075000063 1.975 4096
1.0250001 0.075000063 1.985 1052672
1.0250001 0.08500006 1.975 1052672
1.0150001 0.095000058 1.965 2101248
1.0250001 0.095000058 1.955 4206624
1.0250001 0.095000058 1.975 2105360
1.0450001 0.075000063 1.965 4096
1.0450001 0.08500006 1.955 2113584
1.0450001 0.08500006 1.965 1052688
1.0350001 0.075000063 1.975 4096
1.0350001 0.075000063 1.985 4096
1.0350001 0.08500006 1.985 1052672
1.0450001 0.075000063 1.975 4096
1.0450001 0.08500006 1.975 1052688
1.0450001 0.08500006 1.985 4096
1.0350001 0.095000058 1.965 2101248
1.0450001 0.095000058 1.965 4112
1.0350001 0.095000058 1.975 2105344
1.0450001 0.095000058 1.975 4096
1.0550001 -0.0049999403 1.9350001 4096
1.0650001 0.0050000595 1.9450001 4096
1.0650001 0.015000059 1.9350001 4096
1.0650001 0.02500006 1.9350001 4096
1.0650001 0.02500006 1.9450001 4096
1.0550001 -0.0049999403 1.955 4096
1.0550001 0.0050000595 1.955 4096
1.0650001 -0.0049999403 1.955 4096
1.0650001 0.0050000595 1.955 4096
1.0550001 0.015000059 1.955 4096
1.0550001 0.015000059 1.965 4096
1.0550001 0.02500006 1.965 1052672
1.0650001 0.015000059 1.955 4096
1.0650001 0.02500006 1.955 1052672
1.0650001 0.02500006 1.965 4096
1.075 0.0050000595 1.955 0
1.075 0.015000059 1.955 0
1.075 0.02500006 1.955 1052672
1.0650001 0.03500006 1.9350001 1052688
1.075 0.03500006 1.9450001 1052688
1.075 0.045000061 1.9350001 1056784
1.075 0.045000061 1.9450001 0
1.0550001 0.03500006 1.965 1052672
1.0550001 0.045000061 1.965 4096
1.0650001 0.03500006 1.965 1052672
1.0650001 0.045000061 1.965 1052672
1.0550001 0.055000059 1.965 4096
1.0550001 0.065000057 1.965 4096
1.0650001 0.055000059 1.965 1052672
1.0650001 0.065000057 1.965 1052688
1.0650001 0.055000059 1.975 4096
1.0650001 0.065000057 1.975 1052688
1.075 0.03500006 1.955 1052688
1.075 0.03500006 1.965 1052672
1.075 0.045000061 1.955 1052672
1.075 0.055000059 1.955 1052688
1.075 0.065000057 1.955 1056784
1.075 0.065000057 1.965 1052688
1.075 0.065000057 1.975 1052688
1.0550001 0.075000063 1.965 4096
1.0550001 0.08500006 1.965 1056800
1.0650001 0.075000063 1.965 4096
1.0550001 0.075000063 1.975 1052688
1.0650001 0.075000063 1.975 1056784
1.075 0.075000063 1.965 1056784
1.2750001 1.625 3.4850001 8421488
1.105 1.725 3.8050001 9478288
1.105 1.735 3.8050001 6320224
1.125 1.735 3.825 6320224
1.2850001 1.6850001 3.625 6320224
1.1950001 1.735 3.825 6320224
1.2750001 1.735 3.7150002 10526880
1.2750001 1.745 3.7150002 10526880
1.2850001 1.745 3.7250001 9478304
1.2750001 1.745 3.7350001 9478304
1.2850001 1.735 3.7350001 6320240
1.215 1.735 3.8150001 8425616
1.215 1.745 3.8150001 9478304
1.225 1.735 3.8150001 7368816
1.225 1.745 3.8150001 10526880
1.2650001 1.725 3.7650001 7372912
1.2550001 1.735 3.7750001 7368816
1.2550001 1.745 3.7850001 9478288
1.2650001 1.745 3.7850001 7372912
1.2750001 1.725 3.7650001 6320224
1.2750001 1.745 3.7550001 8425600
1.2850001 1.735 3.7650001 7372912
1.2750001 1.745 3.7750001 6320224
1.2550001 1.725 3.7950001 7372896
1.2550001 1.745 3.7950001 8421504
1.2850001 1.7550001 3.7250001 9478304
1.245 1.7550001 3.7950001 9478304
1.245 1.7550001 3.8050001 9478304
1.235 1.7550001 3.825 9478288
1.235 1.7650001 3.825 9478304
1.245 1.7550001 3.8150001 8425600
1.245 1.7750001 3.8150001 9478288
1.2650001 1.7550001 3.7850001 9478304
1.2750001 1.7550001 3.7650001 9478304
1.2550001 1.7650001 3.7950001 10526880
1.2550001 1.7650001 3.8050001 10526880
1.2650001 1.7750001 3.8050001 9478288
1.2750001 1.7750001 3.7950001 10526880
0.02500006 2.135 4.335 10531008
0.045000061 2.145 4.3450003 10531008
0.015000059 2.145 4.355 10531008
0.015000059 2.145 4.375 10531008
0.03500006 2.145 4.355 10531008
0.045000061 2.135 4.355 10531008
0.03500006 2.145 4.375 10531008
0.055000059 2.145 4.355 10531008
0.055000059 2.145 4.375 10531008
0.075000063 2.135 4.375 10530992
0.015000059 2.145 4.4050002 10531008
0.02500006 2.145 4.4250002 10531008
0.045000061 2.135 4.395 10531008
0.015000059 2.145 4.4549999 10530992
0.03500006 2.145 4.4349999 10531008
0.055000059 2.145 4.4050002 10530992
0.075000063 2.135 4.415 10530992
0.055000059 2.145 4.4349999 10531008
0.08500006 2.145 4.4549999 10530992
0.075000063 2.155 4.3850002 10531008
0.08500006 2.155 4.375 10530992
0.02500006 2.155 4.395 10531008
0.02500006 2.155 4.4250002 10531008
0.03500006 2.155 4.4250002 10531008
0.015000059 2.155 4.4450002 10531008
0.045000061 2.155 4.4450002 10531008
0.03500006 2.155 4.4650002 10531008
0.08500006 2.155 4.415 10530992
0.08500006 2.165 4.415 10530992
0.08500006 2.155 4.4450002 10530992
0.075000063 2.155 4.4650002 10530992
0.075000063 2.175 4.4349999 10531008
0.11500006 2.135 4.3650002 10530992
0.13500006 2.145 4.3850002 10530992
0.15500006 2.145 4.355 10530992
0.16500007 2.145 4.355 10530992
0.15500006 2.135 4.3850002 10530992
0.11500006 2.145 4.4050002 10530992
0.095000058 2.135 4.4650002 10530992
0.095000058 2.145 4.4549999 10530992
0.10500006 2.145 4.4549999 10530992
0.13500006 2.145 4.415 10530992
0.14500006 2.135 4.415 10530992
0.16500007 2.125 4.4250002 10530992
0.16500007 2.135 4.4050002 10530992
0.15500006 2.135 4.415 10530992
0.15500006 2.135 4.4250002 10530992
0.16500007 2.135 4.4250002 10530992
0.13500006 2.145 4.4549999 10530992
0.14500006 2.135 4.4650002 10530992
0.14500006 2.145 4.4549999 10530992
0.15500006 2.125 4.4450002 10530992
0.15500006 2.125 4.4650002 10530992
0.095000058 2.155 4.375 10531008
0.14500006 2.165 4.3850002 10531008
0.095000058 2.155 4.395 10531008
0.10500006 2.155 4.395 10530992
0.095000058 2.155 4.4450002 10531008
0.095000058 2.165 4.4450002 10531008
0.10500006 2.155 4.4349999 10531008
0.14500006 2.155 4.4050002 10531008
0.14500006 2.155 4.415 10530992
0.15500006 2.165 4.415 10531008
0.13500006 2.165 4.4650002 10531008
0.16500007 2.175 4.4349999 10531008
0.16500007 2.175 4.4549999 10530992
0.22500005 2.145 4.355 10530992
0.21500006 2.145 4.3850002 10530992
0.22500005 2.135 4.375 10530992
0.22500005 2.145 4.3850002 10530992
0.23500006 2.145 4.355 10530992
0.24500006 2.145 4.355 10530992
