# .PCD v0.7 - Point Cloud Data file format
VERSION 0.7
FIELDS x y z rgba
SIZE 4 4 4 4
TYPE F F F U
COUNT 1 1 1 1
WIDTH 1129
HEIGHT 1
VIEWPOINT 0 0 0 1 0 0 0
POINTS 1129
DATA ascii
-2.675 3.155 6.3850002 11583712
-2.585 3.105 6.3850002 11583696
-2.5549998 3.105 6.3850002 11583696
-2.605 3.155 6.3850002 12636384
-2.5650001 3.115 6.375 11587808
-3.165 2.925 6.395 10531008
-3.145 2.875 6.395 6320240
-3.135 2.885 6.415 6320240
-3.125 2.895 6.395 10531008
-3.145 2.875 6.4349999 14741744
-3.075 2.9450002 6.395 9482432
-3.0650001 2.9450002 6.415 9482432
-3.0049999 2.885 6.395 10531008
-2.9549999 2.915 6.415 10531008
-2.9349999 3.0150001 6.395 10535120
-2.915 3.0150001 6.4050002 10535120
-2.875 2.9750001 6.395 10535120
-2.905 3.0050001 6.4250002 11583696
-2.895 3.0250001 6.395 11583696
-2.885 2.9950001 6.415 10535120
-2.895 3.0250001 6.4349999 11583696
-2.9349999 3.0650001 6.395 10535120
-2.875 3.0650001 6.395 10535120
-2.8150001 3.0250001 6.4050002 10535120
-2.7849998 3.0050001 6.395 11583696
-2.7649999 3.0050001 6.395 10535120
-2.7549999 3.0050001 6.4050002 10535120
-2.865 3.0650001 6.395 11583696
-2.8150001 3.105 6.415 11583696
-2.845 3.115 6.4050002 11583696
-2.7649999 3.0650001 6.415 11583696
-2.7849998 3.095 6.395 11583696
-2.645 3.075 6.4050002 11583696
-2.5549998 3.125 6.395 11587808
-2.5249999 3.105 6.3650002 12636384
-2.4649999 3.105 6.4050002 12636384
-2.4549999 3.095 6.4050002 11587808
-2.4349999 3.095 6.415 11587808
-2.355 3.105 6.4850001 12640480
-2.375 3.125 6.4949999 12636384
-2.335 3.125 6.5349998 8425632
-2.3150001 3.125 6.5349998 7372944
-2.365 3.165 6.5650001 8425616
-2.2049999 3.0450001 6.5650001 12636384
-2.1849999 3.0550001 6.585 12636384
-2.155 3.095 6.6350002 12632272
-2.2149999 3.115 6.625 7372944
-2.165 3.155 6.5650001 15790320
-2.125 3.075 6.6750002 11583696
-2.115 3.085 6.6849999 8425632
-2.105 3.145 6.665 15790320
-2.075 3.135 6.6849999 15790320
-2.095 3.155 6.6750002 15790320
-2.0349998 3.0450001 6.6950002 9478320
-2.0650001 3.165 6.6950002 15790320
-1.9649999 3.075 6.7049999 14741744
-1.925 3.0550001 6.6550002 11583696
-2.0349998 3.075 6.7449999 7372944
-2.0149999 3.0650001 6.7249999 10535120
-2.0149999 3.095 6.7449999 12636384
-1.9949999 3.075 6.7249999 13693168
-1.915 3.115 6.7150002 15790320
-1.925 3.135 6.7249999 15790320
-2.2049999 3.2450001 6.5549998 15790320
-2.095 3.2150002 6.6849999 15790320
-2.0449998 3.2250001 6.5950003 15790320
-2.0249999 3.2350001 6.5750003 15790320
-2.0249999 3.2550001 6.5750003 15790320
-2.0149999 3.2750001 6.6150002 15790320
-1.895 3.0650001 6.645 11583696
-1.885 3.115 6.6750002 15790320
-1.8349999 3.125 6.6750002 11583680
-1.8249999 3.135 6.6550002 15790320
-1.8049999 3.175 6.6950002 15790320
-1.665 3.2950001 6.7049999 15790320
-1.795 3.2150002 6.7249999 15790320
-1.775 3.2350001 6.7350001 15790320
-1.7049999 3.2750001 6.7449999 15790320
-1.635 3.3050001 6.7350001 14741744
-0.57499993 2.675 7.0650001 12632256
-0.55499995 2.6849999 7.085 8421504
-0.61499995 2.675 7.1150002 11583680
-0.55499995 2.615 7.2249999 15790320
-0.52499992 2.615 7.2049999 12636368
-0.34499994 2.655 7.125 15790320
-0.46499994 2.625 7.1950002 15790320
-0.37499994 2.665 7.1950002 15790320
-0.074999943 2.895 7.125 6320224
0.16500007 -0.094999939 0.50500005 4214864
0.17500006 -0.094999939 0.50500005 4214864
0.17500006 -0.094999939 0.51500005 4214864
0.17500006 -0.094999939 0.52500004 4214864
0.18500006 -0.10499994 0.54500008 4214864
0.18500006 -0.094999939 0.53500009 4214864
0.19500005 -0.094999939 0.51500005 15790320
0.19500005 -0.094999939 0.53500009 12636368
0.19500005 -0.094999939 0.54500008 4214864
0.20500006 -0.094999939 0.53500009 15790320
0.18500006 -0.10499994 0.55500007 4214864
0.18500006 -0.10499994 0.56500006 4214864
0.18500006 -0.094999939 0.55500007 4214864
0.19500005 -0.10499994 0.56500006 4214864
0.20500006 -0.094999939 0.55500007 15790320
0.20500006 -0.094999939 0.56500006 4214864
0.19500005 -0.10499994 0.57500005 4214864
0.19500005 -0.10499994 0.58500004 4214864
0.20500006 -0.10499994 0.57500005 4214864
0.20500006 -0.10499994 0.58500004 4214864
0.19500005 -0.10499994 0.59500009 4214864
0.20500006 -0.10499994 0.59500009 4214864
0.20500006 -0.10499994 0.60500008 3162176
0.20500006 -0.10499994 0.61500007 4214864
0.21500006 -0.10499994 0.58500004 8421504
0.21500006 -0.10499994 0.59500009 7368816
0.21500006 -0.10499994 0.60500008 4214864
0.22500005 -0.10499994 0.60500008 11583680
0.21500006 -0.10499994 0.62500006 4214864
0.22500005 -0.10499994 0.61500007 5267536
0.22500005 -0.10499994 0.62500006 4214864
0.17500006 -0.084999941 0.50500005 4214864
0.18500006 -0.084999941 0.50500005 15790320
0.19500005 -0.084999941 0.51500005 15790320
0.29500005 -0.084999941 0.61500007 8417360
0.29500005 -0.084999941 0.62500006 8417344
0.30500007 -0.084999941 0.62500006 8421472
0.08500006 -0.05499994 0.89500004 9478288
0.08500006 -0.05499994 0.90500003 12632256
0.08500006 -0.05499994 0.91500008 7368816
0.075000063 -0.044999942 0.90500003 13689056
0.065000057 -0.044999942 0.92500007 12636368
0.055000059 -0.044999942 0.93500006 13684944
0.055000059 -0.044999942 0.94500005 15790320
0.065000057 -0.044999942 0.93500006 14741728
0.065000057 -0.044999942 0.94500005 14741744
0.065000057 -0.034999941 0.94500005 14741744
0.075000063 -0.044999942 0.91500008 11579568
0.075000063 -0.044999942 0.92500007 11579568
0.08500006 -0.044999942 0.91500008 13689056
0.08500006 -0.044999942 0.92500007 15790320
0.08500006 -0.034999941 0.92500007 15790320
0.075000063 -0.044999942 0.93500006 15790320
0.075000063 -0.034999941 0.93500006 14741728
0.075000063 -0.034999941 0.94500005 14741728
0.08500006 -0.034999941 0.93500006 14741744
0.075000063 -0.024999941 0.94500005 14741728
0.08500006 -0.024999941 0.93500006 14737632
0.08500006 -0.024999941 0.94500005 14737632
0.08500006 -0.01499994 0.94500005 14741744
0.16500007 -0.10499994 0.85500008 2105376
0.16500007 -0.10499994 0.86500007 1056784
0.14500006 -0.094999939 0.87500006 1056784
0.15500006 -0.10499994 0.87500006 1056784
0.15500006 -0.094999939 0.87500006 1056784
0.15500006 -0.094999939 0.88500005 1056784
0.16500007 -0.10499994 0.87500006 1056784
0.16500007 -0.094999939 0.87500006 1056784
0.16500007 -0.094999939 0.88500005 1056784
0.13500006 -0.084999941 0.85500008 2105376
0.13500006 -0.084999941 0.86500007 1056784
0.13500006 -0.074999943 0.86500007 2105360
0.14500006 -0.084999941 0.86500007 1056784
0.14500006 -0.074999943 0.86500007 1056784
0.095000058 -0.064999938 0.88500005 9474192
0.10500006 -0.064999938 0.88500005 3166256
0.095000058 -0.064999938 0.89500004 6320224
0.095000058 -0.05499994 0.89500004 10530976
0.095000058 -0.05499994 0.90500003 11579568
0.10500006 -0.064999938 0.89500004 5267536
0.10500006 -0.05499994 0.89500004 8425600
0.10500006 -0.05499994 0.90500003 13684944
0.11500006 -0.074999943 0.87500006 1056784
0.11500006 -0.074999943 0.88500005 1060880
0.12500006 -0.074999943 0.87500006 1060880
0.12500006 -0.074999943 0.88500005 1060880
0.11500006 -0.064999938 0.88500005 2109472
0.12500006 -0.064999938 0.88500005 1060896
0.11500006 -0.064999938 0.89500004 2113568
0.11500006 -0.05499994 0.89500004 6320224
0.11500006 -0.05499994 0.90500003 9478288
0.12500006 -0.064999938 0.89500004 2109472
0.12500006 -0.05499994 0.89500004 11583664
0.12500006 -0.05499994 0.90500003 13684944
0.095000058 -0.044999942 0.90500003 13684944
0.10500006 -0.044999942 0.90500003 13689056
0.11500006 -0.044999942 0.90500003 14737632
0.12500006 -0.044999942 0.90500003 13689056
0.12500006 -0.034999941 0.90500003 13689040
0.095000058 -0.044999942 0.91500008 13684944
0.095000058 -0.034999941 0.91500008 14741744
0.095000058 -0.034999941 0.92500007 15790320
0.10500006 -0.044999942 0.91500008 13684944
0.10500006 -0.034999941 0.91500008 13684944
0.10500006 -0.034999941 0.92500007 15790320
0.095000058 -0.034999941 0.93500006 15790320
0.095000058 -0.024999941 0.92500007 14741728
0.10500006 -0.024999941 0.92500007 14741744
0.10500006 -0.01499994 0.92500007 14737632
0.095000058 -0.024999941 0.93500006 14741728
0.095000058 -0.01499994 0.93500006 14737632
0.095000058 -0.01499994 0.94500005 14737632
0.10500006 -0.024999941 0.93500006 14737632
0.10500006 -0.01499994 0.93500006 14737632
0.10500006 -0.01499994 0.94500005 13684944
0.11500006 -0.044999942 0.91500008 13689056
0.11500006 -0.034999941 0.91500008 12632256
0.12500006 -0.044999942 0.91500008 14737632
0.12500006 -0.034999941 0.91500008 12632256
0.11500006 -0.024999941 0.91500008 14737632
0.11500006 -0.024999941 0.92500007 15790320
0.11500006 -0.01499994 0.92500007 14737632
0.12500006 -0.024999941 0.91500008 12636352
0.12500006 -0.024999941 0.92500007 14741728
0.12500006 -0.01499994 0.91500008 15790320
0.12500006 -0.01499994 0.92500007 14737632
0.11500006 -0.01499994 0.93500006 14737632
0.12500006 -0.01499994 0.93500006 13689056
0.13500006 -0.074999943 0.87500006 2109472
0.13500006 -0.074999943 0.88500005 1060880
0.14500006 -0.084999941 0.87500006 1056784
0.14500006 -0.074999943 0.87500006 2105376
0.14500006 -0.074999943 0.88500005 2105376
0.13500006 -0.064999938 0.88500005 2113568
0.14500006 -0.064999938 0.88500005 7372912
0.13500006 -0.064999938 0.89500004 8425600
0.13500006 -0.05499994 0.89500004 13689040
0.14500006 -0.064999938 0.89500004 13689040
0.14500006 -0.05499994 0.89500004 13684944
0.14500006 -0.05499994 0.90500003 13684944
0.15500006 -0.084999941 0.87500006 1056784
0.15500006 -0.084999941 0.88500005 1056784
0.15500006 -0.074999943 0.87500006 2109472
0.15500006 -0.074999943 0.88500005 3158064
0.16500007 -0.084999941 0.88500005 1056784
0.16500007 -0.074999943 0.87500006 2109472
0.16500007 -0.074999943 0.88500005 8425600
0.15500006 -0.064999938 0.88500005 12636352
0.15500006 -0.05499994 0.88500005 13684944
0.16500007 -0.064999938 0.88500005 13684944
0.16500007 -0.05499994 0.88500005 12636368
0.15500006 -0.05499994 0.89500004 12636368
0.15500006 -0.05499994 0.90500003 12636352
0.16500007 -0.05499994 0.89500004 12636352
0.16500007 -0.05499994 0.90500003 12632256
0.13500006 -0.044999942 0.89500004 13684944
0.13500006 -0.044999942 0.90500003 13689040
0.13500006 -0.034999941 0.90500003 13689040
0.14500006 -0.044999942 0.89500004 12636352
0.14500006 -0.044999942 0.90500003 12636352
0.14500006 -0.034999941 0.90500003 13689040
0.15500006 -0.044999942 0.89500004 12632256
0.15500006 -0.044999942 0.90500003 12632256
0.15500006 -0.034999941 0.90500003 13689040
0.16500007 -0.044999942 0.89500004 11583664
0.16500007 -0.044999942 0.90500003 11583664
0.16500007 -0.034999941 0.90500003 13684944
0.13500006 -0.034999941 0.91500008 13684944
0.14500006 -0.034999941 0.91500008 13689040
0.13500006 -0.024999941 0.91500008 11583664
0.13500006 -0.01499994 0.91500008 14737632
0.13500006 -0.01499994 0.92500007 14741728
0.14500006 -0.024999941 0.91500008 11583664
0.14500006 -0.01499994 0.91500008 13684944
0.14500006 -0.01499994 0.92500007 15790320
0.15500006 -0.034999941 0.91500008 14737632
0.16500007 -0.034999941 0.91500008 13689040
0.15500006 -0.024999941 0.91500008 12632256
0.15500006 -0.01499994 0.91500008 12632240
0.15500006 -0.01499994 0.92500007 13684944
0.16500007 -0.024999941 0.91500008 13684944
0.16500007 -0.01499994 0.91500008 11579568
0.21500006 -0.11499994 0.63500005 4214848
0.21500006 -0.11499994 0.64500004 4214864
0.22500005 -0.11499994 0.64500004 4214864
0.21500006 -0.11499994 0.65500003 4210752
0.21500006 -0.11499994 0.66500008 3162176
0.22500005 -0.11499994 0.65500003 4214848
0.22500005 -0.11499994 0.66500008 4214848
0.22500005 -0.10499994 0.63500005 4214848
0.23500006 -0.11499994 0.64500004 4210752
0.23500006 -0.11499994 0.65500003 3162176
0.23500006 -0.11499994 0.66500008 4210752
0.23500006 -0.10499994 0.63500005 4214848
0.22500005 -0.11499994 0.67500007 3158064
0.22500005 -0.11499994 0.68500006 3158064
0.22500005 -0.11499994 0.69500005 2105376
0.22500005 -0.11499994 0.70500004 1052688
0.23500006 -0.11499994 0.67500007 3162176
0.23500006 -0.11499994 0.68500006 3158064
0.23500006 -0.11499994 0.69500005 2105376
0.23500006 -0.11499994 0.70500004 2105376
0.22500005 -0.11499994 0.71500003 1052704
0.22500005 -0.11499994 0.72500008 9474192
0.22500005 -0.10499994 0.71500003 9474192
0.22500005 -0.10499994 0.72500008 8425600
0.22500005 -0.10499994 0.73500007 5263440
0.22500005 -0.10499994 0.74500006 5263440
0.23500006 -0.11499994 0.71500003 1052704
0.23500006 -0.11499994 0.72500008 3158064
0.24500006 -0.11499994 0.71500003 1056800
0.24500006 -0.11499994 0.72500008 1052704
0.23500006 -0.11499994 0.73500007 8421504
0.23500006 -0.11499994 0.74500006 8425600
0.24500006 -0.11499994 0.73500007 4214848
0.24500006 -0.11499994 0.74500006 9478288
0.23500006 -0.10499994 0.73500007 7372928
0.23500006 -0.10499994 0.74500006 5267552
0.24500006 -0.11499994 0.75500005 10526880
0.23500006 -0.10499994 0.75500005 5263440
0.24500006 -0.10499994 0.75500005 5263440
0.24500006 -0.10499994 0.76500005 3158064
0.24500006 -0.10499994 0.77500004 4210736
0.24500006 -0.10499994 0.78500009 4210736
0.24500006 -0.064999938 0.78500009 8421488
0.24500006 -0.05499994 0.78500009 8413264
0.25500005 -0.11499994 0.73500007 13684944
0.25500005 -0.11499994 0.74500006 12636352
0.26500005 -0.11499994 0.74500006 13684928
0.25500005 -0.11499994 0.75500005 11579568
0.26500005 -0.11499994 0.75500005 11583664
0.25500005 -0.10499994 0.75500005 6316128
0.25500005 -0.10499994 0.76500005 4210736
0.26500005 -0.10499994 0.75500005 10530976
0.26500005 -0.10499994 0.76500005 5259312
0.25500005 -0.10499994 0.77500004 5259312
0.26500005 -0.10499994 0.77500004 4210736
0.27500007 -0.11499994 0.75500005 12636352
0.27500007 -0.11499994 0.76500005 11583664
0.28500006 -0.11499994 0.76500005 12632256
0.27500007 -0.11499994 0.77500004 7368816
0.28500006 -0.11499994 0.77500004 9474192
0.27500007 -0.10499994 0.76500005 5263440
0.27500007 -0.10499994 0.77500004 4210736
0.27500007 -0.10499994 0.78500009 4210720
0.28500006 -0.10499994 0.77500004 4210736
0.28500006 -0.10499994 0.78500009 5259312
0.29500005 -0.11499994 0.77500004 10526880
0.29500005 -0.11499994 0.78500009 8421488
0.30500007 -0.11499994 0.77500004 11583664
0.30500007 -0.11499994 0.78500009 9478288
0.29500005 -0.10499994 0.78500009 5259312
0.30500007 -0.084999941 0.63500005 9470016
0.31500006 -0.084999941 0.66500008 9465920
0.32500005 -0.084999941 0.67500007 8421488
0.26500005 -0.074999943 0.78500009 11579552
0.25500005 -0.064999938 0.78500009 8417376
0.25500005 -0.05499994 0.78500009 8413248
0.26500005 -0.064999938 0.78500009 7360560
0.26500005 -0.05499994 0.78500009 8413248
0.27500007 -0.05499994 0.78500009 8413248
0.25500005 -0.044999942 0.78500009 9465936
0.17500006 -0.10499994 0.85500008 2109472
0.17500006 -0.10499994 0.86500007 1056800
0.18500006 -0.10499994 0.85500008 4214848
0.18500006 -0.10499994 0.86500007 2109472
0.20500006 -0.11499994 0.85500008 5263440
0.20500006 -0.11499994 0.86500007 5263440
0.19500005 -0.10499994 0.85500008 4210752
0.19500005 -0.10499994 0.86500007 3162160
0.20500006 -0.10499994 0.86500007 4214848
0.24500006 -0.11499994 0.79500008 4210752
0.23500006 -0.094999939 0.80500007 9478288
0.24500006 -0.094999939 0.79500008 4214848
0.24500006 -0.094999939 0.80500007 4214848
0.23500006 -0.094999939 0.81500006 11579568
0.23500006 -0.094999939 0.82500005 12632256
0.24500006 -0.094999939 0.81500006 5267536
0.24500006 -0.094999939 0.82500005 5267536
0.21500006 -0.11499994 0.85500008 7372912
0.21500006 -0.11499994 0.86500007 6320224
0.22500005 -0.11499994 0.85500008 6316128
0.22500005 -0.11499994 0.86500007 7372912
0.21500006 -0.10499994 0.86500007 4210752
0.22500005 -0.10499994 0.86500007 4210752
0.23500006 -0.11499994 0.85500008 4210752
0.23500006 -0.11499994 0.86500007 6320224
0.24500006 -0.11499994 0.86500007 4210752
0.23500006 -0.094999939 0.83500004 11583664
0.24500006 -0.094999939 0.83500004 2105376
0.24500006 -0.094999939 0.84500009 5267536
0.24500006 -0.094999939 0.85500008 11583664
0.24500006 -0.094999939 0.86500007 10526880
0.17500006 -0.10499994 0.87500006 1056784
0.17500006 -0.10499994 0.88500005 1056784
0.17500006 -0.094999939 0.87500006 1056784
0.17500006 -0.094999939 0.88500005 1056784
0.18500006 -0.10499994 0.87500006 2105376
0.18500006 -0.10499994 0.88500005 2105376
0.18500006 -0.094999939 0.88500005 2109472
0.19500005 -0.10499994 0.87500006 2109472
0.19500005 -0.10499994 0.88500005 2109472
0.19500005 -0.094999939 0.88500005 2109472
0.20500006 -0.10499994 0.87500006 2109472
0.20500006 -0.094999939 0.87500006 1056784
0.20500006 -0.094999939 0.88500005 2109472
0.19500005 -0.094999939 0.89500004 2105376
0.20500006 -0.094999939 0.89500004 3158064
0.21500006 -0.10499994 0.87500006 3158064
0.21500006 -0.094999939 0.87500006 2109472
0.21500006 -0.094999939 0.88500005 3162160
0.22500005 -0.10499994 0.87500006 4214848
0.22500005 -0.094999939 0.87500006 2105376
0.22500005 -0.094999939 0.88500005 4214864
0.21500006 -0.094999939 0.89500004 4214848
0.22500005 -0.094999939 0.89500004 10530976
0.23500006 -0.11499994 0.87500006 6320224
0.24500006 -0.11499994 0.87500006 7368816
0.23500006 -0.10499994 0.87500006 4210752
0.23500006 -0.094999939 0.87500006 7368816
0.23500006 -0.094999939 0.88500005 12632256
0.24500006 -0.10499994 0.87500006 4214848
0.24500006 -0.094999939 0.87500006 12632256
0.24500006 -0.094999939 0.88500005 12632256
0.23500006 -0.094999939 0.89500004 12636352
0.22500005 -0.074999943 0.80500007 10530976
0.22500005 -0.084999941 0.81500006 11579568
0.22500005 -0.074999943 0.81500006 10530992
0.22500005 -0.074999943 0.82500005 11579568
0.22500005 -0.064999938 0.80500007 10526864
0.22500005 -0.064999938 0.81500006 9474192
0.22500005 -0.064999938 0.82500005 9474192
0.22500005 -0.05499994 0.81500006 11571328
0.22500005 -0.05499994 0.82500005 11571328
0.23500006 -0.084999941 0.79500008 10526880
0.23500006 -0.084999941 0.80500007 10530976
0.23500006 -0.074999943 0.79500008 10530976
0.23500006 -0.074999943 0.80500007 10530976
0.24500006 -0.084999941 0.79500008 10526880
0.24500006 -0.074999943 0.79500008 10530976
0.23500006 -0.084999941 0.81500006 11583664
0.23500006 -0.084999941 0.82500005 11583664
0.23500006 -0.064999938 0.79500008 10522768
0.23500006 -0.064999938 0.80500007 10522768
0.23500006 -0.05499994 0.79500008 10518640
0.23500006 -0.05499994 0.80500007 10518640
0.24500006 -0.064999938 0.79500008 8417376
0.24500006 -0.05499994 0.79500008 9465952
0.23500006 -0.05499994 0.81500006 10518640
0.22500005 -0.074999943 0.83500004 10530976
0.22500005 -0.074999943 0.84500009 10526880
0.22500005 -0.074999943 0.85500008 10530976
0.22500005 -0.074999943 0.86500007 10530976
0.22500005 -0.064999938 0.83500004 9478288
0.22500005 -0.064999938 0.84500009 10526880
0.22500005 -0.05499994 0.83500004 11571328
0.22500005 -0.05499994 0.84500009 11571328
0.22500005 -0.064999938 0.85500008 10526880
0.22500005 -0.064999938 0.86500007 10530976
0.22500005 -0.05499994 0.85500008 11575440
0.22500005 -0.05499994 0.86500007 9474192
0.23500006 -0.084999941 0.83500004 11583664
0.23500006 -0.084999941 0.84500009 11583664
0.23500006 -0.084999941 0.85500008 11583680
0.23500006 -0.084999941 0.86500007 12632256
0.23500006 -0.074999943 0.86500007 10526880
0.22500005 -0.044999942 0.81500006 11571328
0.22500005 -0.044999942 0.82500005 11571328
0.22500005 -0.034999941 0.82500005 12619920
0.23500006 -0.044999942 0.79500008 11571328
0.23500006 -0.044999942 0.80500007 11571328
0.23500006 -0.034999941 0.80500007 11571328
0.24500006 -0.044999942 0.79500008 10518640
0.24500006 -0.034999941 0.79500008 11571312
0.24500006 -0.034999941 0.80500007 11571328
0.23500006 -0.044999942 0.81500006 11571328
0.23500006 -0.044999942 0.82500005 11571328
0.23500006 -0.034999941 0.81500006 11571328
0.23500006 -0.034999941 0.82500005 11571328
0.23500006 -0.024999941 0.80500007 12624000
0.24500006 -0.024999941 0.80500007 11571328
0.24500006 -0.01499994 0.80500007 12624000
0.23500006 -0.024999941 0.81500006 12624000
0.23500006 -0.024999941 0.82500005 12624000
0.23500006 -0.01499994 0.81500006 12624000
0.23500006 -0.01499994 0.82500005 12624000
0.24500006 -0.024999941 0.81500006 12624000
0.24500006 -0.01499994 0.81500006 12624000
0.24500006 -0.01499994 0.82500005 12624000
0.22500005 -0.044999942 0.83500004 11571328
0.22500005 -0.044999942 0.84500009 12624016
0.22500005 -0.034999941 0.83500004 11575424
0.22500005 -0.034999941 0.84500009 12624016
0.22500005 -0.044999942 0.85500008 12624016
0.22500005 -0.044999942 0.86500007 11575440
0.22500005 -0.034999941 0.85500008 12624016
0.22500005 -0.034999941 0.86500007 12624016
0.22500005 -0.024999941 0.83500004 12624016
0.22500005 -0.024999941 0.84500009 12624016
0.22500005 -0.024999941 0.85500008 12624016
0.22500005 -0.024999941 0.86500007 12624016
0.23500006 -0.034999941 0.83500004 12624016
0.23500006 -0.024999941 0.83500004 12624016
0.23500006 -0.024999941 0.84500009 12624016
0.23500006 -0.01499994 0.83500004 12624016
0.23500006 -0.01499994 0.84500009 12624016
0.23500006 -0.024999941 0.85500008 12624016
0.23500006 -0.024999941 0.86500007 12624016
0.23500006 -0.01499994 0.85500008 12624016
0.23500006 -0.01499994 0.86500007 12624016
0.17500006 -0.084999941 0.88500005 1056784
0.17500006 -0.074999943 0.88500005 13684944
0.18500006 -0.084999941 0.88500005 2105376
0.17500006 -0.084999941 0.89500004 1056800
0.17500006 -0.074999943 0.89500004 8425600
0.18500006 -0.084999941 0.89500004 3162160
0.18500006 -0.074999943 0.89500004 12636352
0.17500006 -0.064999938 0.88500005 12636368
0.17500006 -0.05499994 0.88500005 12636352
0.18500006 -0.064999938 0.88500005 12632256
0.18500006 -0.05499994 0.88500005 12632256
0.17500006 -0.064999938 0.89500004 13684944
0.17500006 -0.05499994 0.89500004 12632256
0.17500006 -0.05499994 0.90500003 12632256
0.18500006 -0.064999938 0.89500004 12636352
0.18500006 -0.064999938 0.90500003 12632256
0.18500006 -0.05499994 0.89500004 12632256
0.18500006 -0.05499994 0.90500003 11583680
0.19500005 -0.084999941 0.89500004 7368816
0.19500005 -0.074999943 0.89500004 12636352
0.19500005 -0.074999943 0.90500003 12632256
0.20500006 -0.084999941 0.89500004 11579568
0.20500006 -0.074999943 0.89500004 12632256
0.20500006 -0.074999943 0.90500003 11579568
0.19500005 -0.064999938 0.89500004 12632256
0.19500005 -0.064999938 0.90500003 12632256
0.19500005 -0.05499994 0.89500004 11583664
0.20500006 -0.064999938 0.89500004 11583664
0.20500006 -0.064999938 0.90500003 11579568
0.20500006 -0.05499994 0.89500004 10526880
0.20500006 -0.05499994 0.90500003 11579568
0.17500006 -0.044999942 0.90500003 11583664
0.17500006 -0.034999941 0.90500003 12632256
0.18500006 -0.044999942 0.90500003 13684944
0.18500006 -0.034999941 0.90500003 12632256
0.19500005 -0.044999942 0.90500003 13684944
0.19500005 -0.034999941 0.90500003 12632256
0.20500006 -0.044999942 0.89500004 12632256
0.20500006 -0.044999942 0.90500003 14737632
0.20500006 -0.034999941 0.90500003 12632256
0.19500005 -0.024999941 0.90500003 13684944
0.17500006 -0.034999941 0.91500008 12636352
0.17500006 -0.024999941 0.91500008 13689040
0.17500006 -0.01499994 0.91500008 11579568
0.18500006 -0.024999941 0.91500008 13689040
0.18500006 -0.01499994 0.91500008 12632256
0.18500006 -0.01499994 0.92500007 11579568
0.19500005 -0.034999941 0.91500008 12632256
0.20500006 -0.044999942 0.91500008 14737632
0.20500006 -0.034999941 0.91500008 12632256
0.19500005 -0.024999941 0.91500008 13689040
0.19500005 -0.01499994 0.91500008 12636352
0.19500005 -0.01499994 0.92500007 12636352
0.20500006 -0.024999941 0.91500008 12632256
0.20500006 -0.01499994 0.91500008 13684944
0.20500006 -0.01499994 0.92500007 13684944
0.21500006 -0.084999941 0.89500004 12636352
0.21500006 -0.074999943 0.89500004 11583664
0.22500005 -0.084999941 0.89500004 12632256
0.22500005 -0.074999943 0.89500004 11579568
0.22500005 -0.074999943 0.90500003 11579568
0.22500005 -0.064999938 0.87500006 10526880
0.22500005 -0.064999938 0.88500005 9478288
0.22500005 -0.05499994 0.87500006 9474176
0.22500005 -0.05499994 0.88500005 9470064
0.21500006 -0.064999938 0.89500004 10530976
0.21500006 -0.064999938 0.90500003 11579568
0.21500006 -0.05499994 0.90500003 9474192
0.22500005 -0.064999938 0.89500004 10526880
0.22500005 -0.064999938 0.90500003 10526880
0.22500005 -0.05499994 0.90500003 7368816
0.23500006 -0.084999941 0.87500006 11583680
0.23500006 -0.084999941 0.88500005 11583664
0.23500006 -0.074999943 0.87500006 10526880
0.23500006 -0.074999943 0.88500005 10530976
0.24500006 -0.084999941 0.87500006 12632256
0.23500006 -0.084999941 0.89500004 11583680
0.23500006 -0.084999941 0.90500003 12632256
0.23500006 -0.074999943 0.89500004 11579568
0.23500006 -0.074999943 0.90500003 10530992
0.24500006 -0.084999941 0.89500004 12636352
0.23500006 -0.064999938 0.89500004 10526880
0.23500006 -0.064999938 0.90500003 9478288
0.23500006 -0.05499994 0.90500003 7364704
0.21500006 -0.064999938 0.91500008 11579568
0.22500005 -0.05499994 0.91500008 7368800
0.23500006 -0.05499994 0.91500008 7364704
0.22500005 -0.044999942 0.88500005 9470064
0.22500005 -0.034999941 0.87500006 11575440
0.21500006 -0.044999942 0.89500004 11575456
0.21500006 -0.044999942 0.90500003 12632256
0.22500005 -0.044999942 0.90500003 10526864
0.22500005 -0.034999941 0.90500003 13684944
0.23500006 -0.044999942 0.88500005 8417376
0.23500006 -0.034999941 0.88500005 11575440
0.23500006 -0.044999942 0.89500004 9470064
0.23500006 -0.044999942 0.90500003 8417392
0.23500006 -0.034999941 0.89500004 11575440
0.23500006 -0.034999941 0.90500003 12632240
0.23500006 -0.024999941 0.87500006 11575440
0.23500006 -0.024999941 0.88500005 11575440
0.23500006 -0.01499994 0.87500006 12624016
0.23500006 -0.01499994 0.88500005 11575440
0.23500006 -0.024999941 0.89500004 13680816
0.23500006 -0.024999941 0.90500003 12628144
0.23500006 -0.01499994 0.89500004 11575440
0.23500006 -0.01499994 0.90500003 10522752
0.21500006 -0.044999942 0.91500008 14737632
0.21500006 -0.034999941 0.91500008 13684944
0.22500005 -0.044999942 0.91500008 8417376
0.22500005 -0.034999941 0.91500008 14737632
0.21500006 -0.024999941 0.91500008 11579568
0.21500006 -0.024999941 0.92500007 11579568
0.21500006 -0.01499994 0.91500008 13684944
0.21500006 -0.01499994 0.92500007 12632240
0.22500005 -0.024999941 0.91500008 12628144
0.22500005 -0.024999941 0.92500007 12628144
0.22500005 -0.01499994 0.92500007 11579552
0.23500006 -0.044999942 0.91500008 7364704
0.23500006 -0.034999941 0.91500008 13684944
0.23500006 -0.034999941 0.92500007 14737632
0.23500006 -0.024999941 0.91500008 13684944
0.23500006 -0.024999941 0.92500007 12632240
0.23500006 -0.01499994 0.91500008 10526864
0.23500006 -0.01499994 0.92500007 10526880
0.24500006 -0.01499994 0.92500007 10522768
0.24500006 -0.01499994 0.93500006 10526864
0.25500005 -0.094999939 0.79500008 4210752
0.25500005 -0.094999939 0.80500007 3158064
0.26500005 -0.094999939 0.79500008 3158064
0.26500005 -0.094999939 0.80500007 4214848
0.25500005 -0.094999939 0.81500006 3158064
0.25500005 -0.094999939 0.82500005 2109472
0.26500005 -0.10499994 0.82500005 7368816
0.26500005 -0.094999939 0.81500006 7368816
0.27500007 -0.094999939 0.79500008 3162160
0.27500007 -0.094999939 0.80500007 4214848
0.28500006 -0.10499994 0.80500007 5259296
0.28500006 -0.094999939 0.80500007 4214848
0.28500006 -0.10499994 0.81500006 5263424
0.28500006 -0.094999939 0.81500006 5263440
0.25500005 -0.11499994 0.86500007 3158048
0.26500005 -0.11499994 0.85500008 3158048
0.26500005 -0.11499994 0.86500007 3158048
0.25500005 -0.10499994 0.84500009 2109472
0.25500005 -0.10499994 0.85500008 2109472
0.25500005 -0.10499994 0.86500007 4210752
0.26500005 -0.10499994 0.85500008 4214848
0.26500005 -0.10499994 0.86500007 4214848
0.27500007 -0.11499994 0.85500008 3158048
0.27500007 -0.11499994 0.86500007 3153952
0.27500007 -0.10499994 0.83500004 6320240
0.27500007 -0.10499994 0.84500009 6316128
0.28500006 -0.10499994 0.86500007 7368816
0.30500007 -0.11499994 0.79500008 6320224
0.29500005 -0.10499994 0.79500008 5259296
0.29500005 -0.094999939 0.80500007 3162160
0.30500007 -0.10499994 0.79500008 4206624
0.30500007 -0.10499994 0.80500007 4206624
0.29500005 -0.10499994 0.81500006 5263440
0.29500005 -0.10499994 0.82500005 5263440
0.29500005 -0.094999939 0.81500006 5263440
0.30500007 -0.10499994 0.81500006 4210720
0.30500007 -0.10499994 0.82500005 5259312
0.30500007 -0.094999939 0.81500006 5263424
0.30500007 -0.094999939 0.82500005 4214848
0.31500006 -0.11499994 0.79500008 9474192
0.31500006 -0.11499994 0.80500007 6316112
0.32500005 -0.11499994 0.79500008 12636352
0.32500005 -0.11499994 0.80500007 9474176
0.32500005 -0.11499994 0.81500006 7368800
0.31500006 -0.10499994 0.80500007 6311984
0.31500006 -0.10499994 0.81500006 5259296
0.31500006 -0.10499994 0.82500005 4206624
0.31500006 -0.094999939 0.82500005 4210736
0.32500005 -0.10499994 0.81500006 8417344
0.32500005 -0.10499994 0.82500005 4206624
0.32500005 -0.094999939 0.82500005 3153936
0.31500006 -0.10499994 0.83500004 4210736
0.31500006 -0.094999939 0.83500004 4210736
0.32500005 -0.10499994 0.83500004 3153952
0.32500005 -0.10499994 0.84500009 3158048
0.32500005 -0.094999939 0.83500004 3153952
0.25500005 -0.11499994 0.87500006 6316128
0.26500005 -0.11499994 0.87500006 5267536
0.25500005 -0.10499994 0.87500006 4210752
0.26500005 -0.10499994 0.87500006 6320224
0.27500007 -0.11499994 0.87500006 4210736
0.27500007 -0.11499994 0.88500005 6316112
0.28500006 -0.11499994 0.87500006 4210736
0.28500006 -0.11499994 0.88500005 5263440
0.27500007 -0.10499994 0.87500006 7372912
0.28500006 -0.10499994 0.87500006 7368816
0.25500005 -0.084999941 0.79500008 8425600
0.25500005 -0.074999943 0.79500008 9474192
0.26500005 -0.084999941 0.79500008 8425600
0.26500005 -0.074999943 0.79500008 9474192
0.25500005 -0.064999938 0.79500008 7364688
0.25500005 -0.05499994 0.79500008 9461840
0.26500005 -0.064999938 0.79500008 7360576
0.26500005 -0.05499994 0.79500008 8413248
0.27500007 -0.084999941 0.79500008 7372912
0.27500007 -0.074999943 0.79500008 9470080
0.28500006 -0.084999941 0.79500008 10530992
0.28500006 -0.084999941 0.80500007 7368816
0.28500006 -0.074999943 0.79500008 8417376
0.28500006 -0.074999943 0.80500007 7364688
0.27500007 -0.064999938 0.79500008 7360560
0.27500007 -0.05499994 0.79500008 8413248
0.28500006 -0.064999938 0.79500008 7356464
0.28500006 -0.064999938 0.80500007 7360560
0.28500006 -0.05499994 0.79500008 7360560
0.28500006 -0.05499994 0.80500007 7360560
0.25500005 -0.044999942 0.79500008 10514528
0.25500005 -0.034999941 0.79500008 10518624
0.25500005 -0.034999941 0.80500007 10518640
0.26500005 -0.044999942 0.79500008 8413264
0.26500005 -0.034999941 0.79500008 9465936
0.26500005 -0.034999941 0.80500007 9465936
0.25500005 -0.024999941 0.79500008 10518624
0.25500005 -0.024999941 0.80500007 11567216
0.25500005 -0.01499994 0.80500007 11571312
0.26500005 -0.024999941 0.79500008 9465936
0.26500005 -0.024999941 0.80500007 9465936
0.26500005 -0.01499994 0.80500007 10518624
0.25500005 -0.01499994 0.81500006 11571312
0.27500007 -0.044999942 0.79500008 7360576
0.27500007 -0.044999942 0.80500007 8413248
0.27500007 -0.034999941 0.79500008 8413248
0.27500007 -0.034999941 0.80500007 8413248
0.28500006 -0.044999942 0.79500008 7360560
0.28500006 -0.044999942 0.80500007 7360560
0.28500006 -0.034999941 0.79500008 7360560
0.28500006 -0.034999941 0.80500007 7360560
0.27500007 -0.024999941 0.80500007 8413264
0.27500007 -0.01499994 0.80500007 9465936
0.28500006 -0.024999941 0.80500007 8413248
0.28500006 -0.01499994 0.80500007 9465936
0.27500007 -0.01499994 0.81500006 9465936
0.28500006 -0.01499994 0.81500006 9465936
0.29500005 -0.084999941 0.80500007 8421488
0.29500005 -0.074999943 0.80500007 6307888
0.30500007 -0.074999943 0.80500007 5255200
0.29500005 -0.084999941 0.81500006 8421504
0.30500007 -0.084999941 0.81500006 4206624
0.30500007 -0.074999943 0.81500006 5255200
0.29500005 -0.064999938 0.80500007 6307872
0.29500005 -0.05499994 0.80500007 6307888
0.30500007 -0.064999938 0.80500007 6307872
0.30500007 -0.05499994 0.80500007 6307872
0.30500007 -0.064999938 0.81500006 6307872
0.30500007 -0.05499994 0.81500006 6307888
0.31500006 -0.084999941 0.81500006 4206608
0.31500006 -0.084999941 0.82500005 3153936
0.31500006 -0.074999943 0.81500006 5255184
0.31500006 -0.074999943 0.82500005 5255200
0.32500005 -0.084999941 0.82500005 3153936
0.32500005 -0.074999943 0.81500006 4206608
0.32500005 -0.074999943 0.82500005 4206608
0.31500006 -0.064999938 0.81500006 5255200
0.31500006 -0.05499994 0.81500006 6307872
0.32500005 -0.064999938 0.81500006 5255200
0.32500005 -0.064999938 0.82500005 5255200
0.32500005 -0.05499994 0.81500006 6307872
0.32500005 -0.05499994 0.82500005 6307872
0.32500005 -0.084999941 0.83500004 3153936
0.29500005 -0.044999942 0.80500007 7360560
0.29500005 -0.034999941 0.79500008 6307888
0.29500005 -0.034999941 0.80500007 7360560
0.30500007 -0.044999942 0.80500007 6307888
0.30500007 -0.034999941 0.80500007 7356464
0.30500007 -0.044999942 0.81500006 6307888
0.30500007 -0.034999941 0.81500006 6307872
0.29500005 -0.024999941 0.80500007 8413248
0.29500005 -0.024999941 0.81500006 8413248
0.29500005 -0.01499994 0.81500006 9465936
0.30500007 -0.024999941 0.81500006 7360576
0.30500007 -0.01499994 0.81500006 8413248
0.30500007 -0.01499994 0.82500005 8413248
0.31500006 -0.044999942 0.81500006 6311984
0.31500006 -0.034999941 0.81500006 6307888
0.31500006 -0.034999941 0.82500005 6307888
0.32500005 -0.044999942 0.81500006 7360560
0.32500005 -0.044999942 0.82500005 7360560
0.32500005 -0.034999941 0.81500006 6307888
0.32500005 -0.034999941 0.82500005 7360560
0.31500006 -0.024999941 0.81500006 7360576
0.31500006 -0.024999941 0.82500005 7360576
0.31500006 -0.01499994 0.82500005 7360560
0.32500005 -0.024999941 0.82500005 7364672
0.31500006 -0.01499994 0.83500004 7360560
0.32500005 -0.024999941 0.83500004 7364672
0.32500005 -0.024999941 0.84500009 7360576
0.32500005 -0.01499994 0.83500004 6311984
0.32500005 -0.01499994 0.84500009 6311984
0.32500005 -0.01499994 0.85500008 6311984
0.045000061 -0.044999942 0.98500007 15790320
0.045000061 -0.044999942 0.99500006 15790320
0.045000061 -0.044999942 1.0050001 14741744
0.045000061 -0.044999942 1.0150001 14741744
0.045000061 -0.044999942 1.0250001 14737632
0.045000061 -0.034999941 1.0150001 14741744
0.045000061 -0.034999941 1.0250001 14741744
0.055000059 -0.044999942 0.95500004 15790320
0.055000059 -0.044999942 0.96500003 15790320
0.055000059 -0.034999941 0.96500003 15790320
0.065000057 -0.044999942 0.95500004 15790320
0.065000057 -0.034999941 0.95500004 15790320
0.065000057 -0.034999941 0.96500003 15790320
0.055000059 -0.044999942 0.97500008 15790320
0.055000059 -0.044999942 0.98500007 15790320
0.055000059 -0.034999941 0.97500008 14741744
0.055000059 -0.034999941 0.98500007 15790320
0.065000057 -0.034999941 0.97500008 14741744
0.065000057 -0.024999941 0.96500003 15790320
0.055000059 -0.024999941 0.98500007 15790320
0.065000057 -0.024999941 0.97500008 14741744
0.065000057 -0.024999941 0.98500007 15790320
0.065000057 -0.01499994 0.97500008 15790320
0.065000057 -0.01499994 0.98500007 15790320
0.075000063 -0.034999941 0.95500004 15790320
0.075000063 -0.024999941 0.95500004 15790320
0.075000063 -0.024999941 0.96500003 15790320
0.075000063 -0.01499994 0.95500004 15790320
0.075000063 -0.01499994 0.96500003 15790320
0.08500006 -0.01499994 0.95500004 15790320
0.08500006 -0.01499994 0.96500003 15790320
0.075000063 -0.01499994 0.97500008 15790320
0.055000059 -0.034999941 0.99500006 15790320
0.055000059 -0.034999941 1.0050001 15790320
0.055000059 -0.024999941 0.99500006 15790320
0.055000059 -0.024999941 1.0050001 15790320
0.055000059 -0.01499994 1.0050001 15790320
0.065000057 -0.01499994 0.99500006 15790320
0.065000057 -0.01499994 1.0050001 14741744
0.055000059 -0.024999941 1.0150001 14737648
0.055000059 -0.024999941 1.0250001 14737632
0.055000059 -0.01499994 1.0150001 14737632
0.055000059 -0.01499994 1.0250001 14737632
0.065000057 -0.01499994 1.0150001 15790320
0.045000061 -0.044999942 1.0350001 15790320
0.045000061 -0.024999941 1.0350001 15790320
0.055000059 -0.024999941 1.0350001 11583664
0.055000059 -0.01499994 1.0350001 11579568
0.055000059 -0.01499994 1.0450001 13684944
0.33500007 -0.094999939 0.69500005 10518592
0.33500007 -0.11499994 0.80500007 11583664
0.34500006 -0.11499994 0.80500007 13684928
0.33500007 -0.11499994 0.81500006 9470064
0.33500007 -0.11499994 0.82500005 8417344
0.34500006 -0.11499994 0.81500006 10522752
0.34500006 -0.11499994 0.82500005 9470032
0.33500007 -0.10499994 0.81500006 9465920
0.33500007 -0.10499994 0.82500005 6307872
0.34500006 -0.10499994 0.82500005 8413232
0.35500005 -0.11499994 0.81500006 9470064
0.35500005 -0.11499994 0.82500005 9470032
0.36500007 -0.11499994 0.82500005 9470032
0.33500007 -0.10499994 0.83500004 5255200
0.33500007 -0.10499994 0.84500009 2105360
0.33500007 -0.094999939 0.83500004 3153936
0.33500007 -0.094999939 0.84500009 2105360
0.34500006 -0.10499994 0.83500004 7364656
0.34500006 -0.10499994 0.84500009 3153936
0.34500006 -0.094999939 0.84500009 3153936
0.33500007 -0.10499994 0.85500008 3158048
0.34500006 -0.10499994 0.85500008 2105360
0.34500006 -0.094999939 0.85500008 2105360
0.35500005 -0.11499994 0.83500004 9465920
0.36500007 -0.11499994 0.83500004 9465920
0.36500007 -0.11499994 0.84500009 9465920
0.35500005 -0.10499994 0.83500004 8413232
0.35500005 -0.10499994 0.84500009 4206624
0.35500005 -0.094999939 0.84500009 3153936
0.36500007 -0.10499994 0.84500009 8413232
0.35500005 -0.10499994 0.85500008 2105344
0.35500005 -0.10499994 0.86500007 2105360
0.35500005 -0.094999939 0.85500008 2105360
0.35500005 -0.094999939 0.86500007 3153936
0.36500007 -0.10499994 0.85500008 2105344
0.36500007 -0.10499994 0.86500007 3153936
0.36500007 -0.094999939 0.85500008 3153936
0.36500007 -0.094999939 0.86500007 3153936
0.37500006 -0.11499994 0.83500004 9470032
0.37500006 -0.11499994 0.84500009 9465920
0.37500006 -0.11499994 0.85500008 9465920
0.38500005 -0.11499994 0.85500008 9465920
0.38500005 -0.11499994 0.86500007 9465920
0.37500006 -0.10499994 0.85500008 7360560
0.37500006 -0.10499994 0.86500007 3153920
0.37500006 -0.094999939 0.86500007 3153936
0.38500005 -0.10499994 0.86500007 7360560
0.39500007 -0.11499994 0.86500007 10518592
0.40500006 -0.10499994 0.85500008 9465920
0.36500007 -0.10499994 0.87500006 2105360
0.37500006 -0.10499994 0.87500006 2105344
0.37500006 -0.094999939 0.87500006 3153936
0.38500005 -0.10499994 0.87500006 3153936
0.38500005 -0.10499994 0.88500005 2105344
0.38500005 -0.094999939 0.87500006 3153936
0.38500005 -0.094999939 0.88500005 3153936
0.39500007 -0.11499994 0.87500006 9465920
0.40500006 -0.12499994 0.87500006 10518592
0.40500006 -0.12499994 0.88500005 10518592
0.40500006 -0.11499994 0.87500006 10518592
0.40500006 -0.11499994 0.88500005 9465920
0.40500006 -0.11499994 0.89500004 8413232
0.39500007 -0.10499994 0.87500006 7364656
0.39500007 -0.10499994 0.88500005 4206608
0.39500007 -0.094999939 0.88500005 3153936
0.40500006 -0.10499994 0.88500005 5259280
0.39500007 -0.10499994 0.89500004 2105360
0.39500007 -0.094999939 0.89500004 3153936
0.40500006 -0.10499994 0.89500004 3153936
0.40500006 -0.10499994 0.90500003 2105360
0.40500006 -0.094999939 0.89500004 3153936
0.40500006 -0.094999939 0.90500003 3153936
0.33500007 -0.084999941 0.82500005 4202512
0.33500007 -0.074999943 0.82500005 4206608
0.33500007 -0.064999938 0.82500005 5255200
0.33500007 -0.05499994 0.81500006 6307872
0.33500007 -0.05499994 0.82500005 6307888
0.34500006 -0.064999938 0.82500005 5255200
0.34500006 -0.05499994 0.82500005 6307888
0.33500007 -0.084999941 0.83500004 3153936
0.33500007 -0.074999943 0.83500004 4206608
0.34500006 -0.084999941 0.83500004 4202512
0.34500006 -0.084999941 0.84500009 3153936
0.34500006 -0.074999943 0.83500004 4206608
0.34500006 -0.074999943 0.84500009 5255184
0.34500006 -0.064999938 0.83500004 5259296
0.34500006 -0.05499994 0.83500004 7360560
0.35500005 -0.084999941 0.84500009 4202512
0.35500005 -0.074999943 0.83500004 5255184
0.35500005 -0.074999943 0.84500009 4206608
0.36500007 -0.074999943 0.84500009 5255184
0.35500005 -0.084999941 0.85500008 3153936
0.36500007 -0.084999941 0.85500008 4202512
0.36500007 -0.074999943 0.85500008 5255184
0.35500005 -0.064999938 0.83500004 5259296
0.35500005 -0.064999938 0.84500009 5259296
0.35500005 -0.05499994 0.83500004 7360576
0.35500005 -0.05499994 0.84500009 7360576
0.36500007 -0.064999938 0.84500009 6307872
0.36500007 -0.064999938 0.85500008 6307872
0.36500007 -0.05499994 0.85500008 7360576
0.36500007 -0.05499994 0.86500007 7364672
0.33500007 -0.044999942 0.82500005 7360560
0.33500007 -0.034999941 0.82500005 7364672
0.33500007 -0.044999942 0.83500004 7364672
0.33500007 -0.034999941 0.83500004 8413248
0.33500007 -0.034999941 0.84500009 7364672
0.34500006 -0.044999942 0.83500004 7364672
0.34500006 -0.044999942 0.84500009 8413248
0.34500006 -0.034999941 0.83500004 8413248
0.34500006 -0.034999941 0.84500009 7364672
0.33500007 -0.024999941 0.83500004 6311984
0.33500007 -0.024999941 0.84500009 7364672
0.34500006 -0.024999941 0.83500004 4206624
0.34500006 -0.024999941 0.84500009 5259312
0.33500007 -0.024999941 0.85500008 6312000
0.34500006 -0.024999941 0.86500007 8417360
0.35500005 -0.044999942 0.84500009 8413248
0.35500005 -0.044999942 0.85500008 8413248
0.35500005 -0.034999941 0.85500008 6311984
0.35500005 -0.034999941 0.86500007 6312000
0.36500007 -0.044999942 0.85500008 7364672
0.36500007 -0.044999942 0.86500007 7364672
0.36500007 -0.034999941 0.86500007 5259312
0.37500006 -0.084999941 0.85500008 4206608
0.37500006 -0.084999941 0.86500007 4206608
0.37500006 -0.074999943 0.85500008 5255184
0.37500006 -0.074999943 0.86500007 5255200
0.38500005 -0.074999943 0.86500007 5255184
0.37500006 -0.064999938 0.85500008 7360560
0.37500006 -0.064999938 0.86500007 6307888
0.37500006 -0.05499994 0.86500007 7364672
0.34500006 -0.024999941 0.88500005 6307888
0.34500006 -0.01499994 0.89500004 6311984
0.36500007 -0.044999942 0.87500006 6311984
0.35500005 -0.024999941 0.88500005 5259312
0.35500005 -0.024999941 0.90500003 6311984
0.35500005 -0.01499994 0.91500008 7360576
0.35500005 -0.01499994 0.92500007 7360576
0.36500007 -0.01499994 0.93500006 6311984
0.38500005 -0.084999941 0.87500006 4206608
0.38500005 -0.074999943 0.87500006 5255200
0.38500005 -0.074999943 0.88500005 6307872
0.37500006 -0.064999938 0.87500006 7364672
0.37500006 -0.05499994 0.87500006 7364672
0.38500005 -0.064999938 0.87500006 7360560
0.38500005 -0.064999938 0.88500005 7360576
0.38500005 -0.05499994 0.88500005 7364672
0.38500005 -0.05499994 0.89500004 7364672
0.38500005 -0.05499994 0.90500003 7364672
0.39500007 -0.084999941 0.87500006 5255184
0.39500007 -0.084999941 0.88500005 4206608
0.39500007 -0.074999943 0.88500005 5259296
0.39500007 -0.074999943 0.89500004 6307872
0.40500006 -0.084999941 0.89500004 4206608
0.40500006 -0.074999943 0.89500004 6307872
0.40500006 -0.074999943 0.90500003 6311984
0.39500007 -0.064999938 0.88500005 7360560
0.39500007 -0.064999938 0.89500004 7360576
0.39500007 -0.064999938 0.90500003 7364672
0.39500007 -0.05499994 0.89500004 8413248
0.39500007 -0.05499994 0.90500003 7364672
0.40500006 -0.064999938 0.89500004 7360560
0.40500006 -0.064999938 0.90500003 7364672
0.39500007 -0.05499994 0.91500008 7364672
0.40500006 -0.064999938 0.91500008 7364672
0.40500006 -0.05499994 0.91500008 7364672
0.40500006 -0.05499994 0.92500007 7364672
0.40500006 -0.05499994 0.93500006 7364672
0.37500006 -0.044999942 0.87500006 7360576
0.37500006 -0.044999942 0.88500005 6311984
0.37500006 -0.044999942 0.89500004 7364672
0.38500005 -0.044999942 0.89500004 5259312
0.38500005 -0.044999942 0.90500003 6312000
0.39500007 -0.044999942 0.90500003 3158048
0.39500007 -0.044999942 0.91500008 5259312
0.40500006 -0.044999942 0.93500006 5263408
0.41500005 -0.10499994 0.86500007 9465920
0.41500005 -0.12499994 0.89500004 10518592
0.41500005 -0.11499994 0.89500004 9465920
0.41500005 -0.11499994 0.90500003 9465904
0.42500007 -0.12499994 0.90500003 10518592
0.42500007 -0.11499994 0.89500004 9465920
0.42500007 -0.11499994 0.90500003 8413232
0.41500005 -0.10499994 0.89500004 6311984
0.41500005 -0.10499994 0.90500003 3158032
0.41500005 -0.094999939 0.90500003 4202512
0.43500006 -0.11499994 0.90500003 8413232
0.42500007 -0.11499994 0.91500008 8413232
0.41500005 -0.10499994 0.91500008 2105344
0.41500005 -0.10499994 0.92500007 2105344
0.41500005 -0.094999939 0.91500008 3153936
0.42500007 -0.10499994 0.91500008 3153920
0.42500007 -0.10499994 0.92500007 3153920
0.42500007 -0.094999939 0.91500008 4202512
0.42500007 -0.094999939 0.92500007 3153936
0.43500006 -0.11499994 0.91500008 7364656
0.43500006 -0.11499994 0.92500007 8413248
0.44500005 -0.11499994 0.91500008 9465920
0.44500005 -0.11499994 0.92500007 8413232
0.44500005 -0.11499994 0.93500006 7364656
0.43500006 -0.10499994 0.92500007 3153920
0.43500006 -0.094999939 0.92500007 4206608
0.44500005 -0.10499994 0.92500007 5259280
0.43500006 -0.10499994 0.93500006 3153936
0.43500006 -0.094999939 0.93500006 4202512
0.44500005 -0.10499994 0.93500006 3153936
0.44500005 -0.10499994 0.94500005 3153936
0.44500005 -0.094999939 0.93500006 5255184
0.47500005 -0.13499995 0.94500005 9465920
0.45500007 -0.11499994 0.92500007 9465920
0.45500007 -0.11499994 0.93500006 8413232
0.46500006 -0.12499994 0.94500005 9465920
0.46500006 -0.11499994 0.94500005 8413232
0.45500007 -0.10499994 0.94500005 4206608
0.45500007 -0.094999939 0.94500005 5255184
0.46500006 -0.10499994 0.94500005 5259296
0.46500006 -0.094999939 0.94500005 5255200
0.47500005 -0.12499994 0.94500005 10514496
0.48500007 -0.12499994 0.94500005 6311984
0.41500005 -0.084999941 0.90500003 5255184
0.41500005 -0.074999943 0.90500003 6307872
0.41500005 -0.074999943 0.91500008 6311984
0.42500007 -0.084999941 0.91500008 5255200
0.42500007 -0.074999943 0.91500008 6311984
0.42500007 -0.074999943 0.92500007 6311984
0.41500005 -0.064999938 0.91500008 8413248
0.41500005 -0.064999938 0.92500007 7364672
0.41500005 -0.05499994 0.92500007 7364672
0.42500007 -0.064999938 0.92500007 8413248
0.41500005 -0.064999938 0.93500006 8413248
0.41500005 -0.05499994 0.93500006 8413248
0.41500005 -0.05499994 0.94500005 8417360
0.42500007 -0.064999938 0.93500006 8413248
0.42500007 -0.064999938 0.94500005 8417360
0.42500007 -0.05499994 0.94500005 8413264
0.43500006 -0.084999941 0.92500007 5255200
0.43500006 -0.074999943 0.92500007 6307872
0.43500006 -0.084999941 0.93500006 5259296
0.43500006 -0.074999943 0.93500006 6311984
0.43500006 -0.074999943 0.94500005 7360560
0.44500005 -0.084999941 0.93500006 6307872
0.44500005 -0.084999941 0.94500005 6307872
0.44500005 -0.074999943 0.93500006 7360560
0.44500005 -0.074999943 0.94500005 7360560
0.43500006 -0.064999938 0.94500005 8413248
0.44500005 -0.064999938 0.94500005 8413248
0.45500007 -0.084999941 0.94500005 6307888
0.49500006 -0.13499995 0.94500005 10518608
0.49500006 -0.12499994 0.94500005 10518608
0.64500004 -0.094999939 0.92500007 1052672
0.61500007 -0.084999941 0.87500006 4214848
0.61500007 -0.084999941 0.88500005 3162160
0.61500007 -0.074999943 0.88500005 2109472
0.62500006 -0.084999941 0.89500004 4214832
0.62500006 -0.084999941 0.90500003 2109472
0.63500005 -0.084999941 0.90500003 4214848
0.37500006 -0.01499994 0.95500004 5259296
0.37500006 -0.01499994 0.96500003 7364672
0.37500006 -0.01499994 0.97500008 7360576
0.38500005 -0.01499994 0.97500008 6311984
0.38500005 -0.01499994 0.98500007 6311984
0.38500005 -0.01499994 0.99500006 6311984
0.39500007 -0.01499994 0.99500006 6312000
0.47500005 -0.13499995 0.95500004 4206624
0.48500007 -0.13499995 0.95500004 10518608
0.46500006 -0.10499994 0.95500004 4202512
0.46500006 -0.094999939 0.95500004 6307872
0.47500005 -0.12499994 0.95500004 6307888
0.47500005 -0.11499994 0.95500004 7360560
0.48500007 -0.12499994 0.95500004 8417360
0.48500007 -0.12499994 0.96500003 10518624
0.48500007 -0.11499994 0.96500003 8413232
0.47500005 -0.10499994 0.95500004 2101248
0.47500005 -0.10499994 0.96500003 3153920
0.47500005 -0.094999939 0.95500004 3153920
0.47500005 -0.094999939 0.96500003 4202512
0.48500007 -0.094999939 0.96500003 4202496
0.48500007 -0.10499994 0.97500008 3153920
0.48500007 -0.094999939 0.97500008 4202512
0.42500007 -0.05499994 0.95500004 8417360
0.42500007 -0.05499994 0.96500003 6311984
0.43500006 -0.064999938 0.95500004 8413248
0.43500006 -0.064999938 0.96500003 8413248
0.43500006 -0.05499994 0.95500004 8417360
0.43500006 -0.05499994 0.96500003 7364672
