# .PCD v0.7 - Point Cloud Data file format
VERSION 0.7
FIELDS x y z rgba
SIZE 4 4 4 4
TYPE F F F U
COUNT 1 1 1 1
WIDTH 1272
HEIGHT 1
VIEWPOINT 0 0 0 1 0 0 0
POINTS 1272
DATA ascii
-0.12499994 2.145 4.6350002 10531008
-0.11499994 2.145 4.645 10531008
-0.11499994 2.145 4.665 10531008
-0.12499994 2.145 4.6750002 10531008
-0.12499994 2.145 4.6950002 10531008
-0.10499994 2.145 4.6350002 10531008
-0.10499994 2.145 4.665 10531008
-0.084999941 2.145 4.6350002 10531008
-0.084999941 2.145 4.665 10531008
-0.074999943 2.145 4.665 10531008
-0.10499994 2.145 4.6950002 10531008
-0.14499994 2.125 4.7449999 10531008
-0.14499994 2.135 4.7249999 10531008
-0.14499994 2.145 4.7150002 10531008
-0.12499994 2.145 4.7449999 10531008
-0.14499994 2.125 4.7649999 10531008
-0.12499994 2.125 4.7649999 10531008
-0.12499994 2.135 4.7550001 10531008
-0.11499994 2.135 4.7649999 10531008
-0.11499994 2.135 4.7849998 10531008
-0.094999939 2.145 4.7249999 10531008
-0.10499994 2.145 4.7449999 10531008
-0.094999939 2.145 4.7449999 10531008
-0.074999943 2.145 4.7249999 10531008
-0.074999943 2.145 4.7449999 10531008
-0.10499994 2.145 4.7750001 10531008
-0.094999939 2.145 4.7750001 10531008
-0.074999943 2.145 4.7750001 10531008
-0.14499994 2.155 4.7049999 10531008
-0.11499994 2.155 4.7049999 10531008
-0.10499994 2.155 4.6350002 10531008
-0.084999941 2.155 4.7049999 10531008
-0.074999943 2.155 4.7049999 10531008
-0.12499994 2.155 4.7449999 10531008
-0.11499994 2.155 4.7449999 10531008
-0.11499994 2.155 4.7649999 10531008
-0.10499994 2.155 4.7350001 10531008
-0.05499994 2.135 4.645 10531008
-0.064999938 2.145 4.6550002 10531008
-0.034999941 2.135 4.6550002 10531008
-0.05499994 2.135 4.6750002 10531008
-0.064999938 2.145 4.6950002 10531008
-0.034999941 2.135 4.6750002 10531008
-0.034999941 2.145 4.7049999 10531008
-0.024999941 2.145 4.6950002 10531008
-0.01499994 2.145 4.6950002 10531008
-0.0049999403 2.145 4.6849999 10531008
-0.05499994 2.145 4.7150002 10531008
-0.05499994 2.145 4.7350001 10530992
-0.034999941 2.135 4.7249999 10530992
-0.064999938 2.145 4.7550001 10531008
-0.05499994 2.135 4.7649999 10530992
-0.064999938 2.135 4.7849998 10531008
-0.064999938 2.145 4.7750001 10531008
-0.034999941 2.135 4.7550001 10530992
-0.024999941 2.145 4.7150002 10531008
-0.01499994 2.145 4.7249999 10531008
-0.024999941 2.145 4.7449999 10530992
-0.0049999403 2.145 4.7249999 10531008
-0.01499994 2.145 4.7550001 10530992
-0.024999941 2.145 4.7750001 10530992
-0.01499994 2.145 4.7849998 10530992
-0.0049999403 2.145 4.7750001 10530992
-0.034999941 2.155 4.6350002 10531008
-0.034999941 2.155 4.6550002 10531008
-0.024999941 2.155 4.665 10531008
-0.024999941 2.165 4.6550002 10531008
-0.01499994 2.165 4.6550002 10530992
-0.0049999403 2.165 4.645 10530992
-0.024999941 2.155 4.6750002 10531008
-0.01499994 2.165 4.6849999 10531008
-0.01499994 2.155 4.6950002 10531008
-0.0049999403 2.165 4.6849999 10530992
-0.0049999403 2.165 4.7049999 10531008
-0.064999938 2.155 4.7350001 10531008
-0.0049999403 2.155 4.7649999 10530992
-0.30499995 2.135 4.8150001 10531008
-0.27499995 2.125 4.8250003 10531008
-0.28499994 2.135 4.7950001 10531008
-0.27499995 2.135 4.7950001 10531008
-0.28499994 2.135 4.8150001 10531008
-0.27499995 2.135 4.8150001 10531008
-0.30499995 2.135 4.835 10531008
-0.30499995 2.135 4.8650002 10531008
-0.27499995 2.125 4.8450003 10531008
-0.27499995 2.115 4.8650002 10531008
-0.28499994 2.135 4.835 10531008
-0.26499993 2.125 4.7950001 10531008
-0.26499993 2.125 4.8150001 10531008
-0.24499995 2.125 4.8150001 10531008
-0.23499994 2.125 4.8250003 10531008
-0.24499995 2.135 4.8049998 10531008
-0.23499994 2.135 4.7950001 10531008
-0.23499994 2.135 4.8150001 10531008
-0.26499993 2.125 4.835 10531008
-0.26499993 2.115 4.8650002 10531008
-0.25499994 2.115 4.8650002 10531008
-0.24499995 2.115 4.835 10531008
-0.28499994 2.105 4.9250002 8425616
-0.30499995 2.125 4.8850002 10531008
-0.29499993 2.125 4.8850002 10531008
-0.30499995 2.115 4.895 10531008
-0.29499993 2.115 4.895 10531008
-0.27499995 2.115 4.8850002 10531008
-0.29499993 2.115 4.915 11583680
-0.28499994 2.115 4.915 10531008
-0.25499994 2.105 4.9450002 10530992
-0.26499993 2.115 4.895 10531008
-0.25499994 2.115 4.895 10531008
-0.26499993 2.115 4.915 10531008
-0.22499993 2.115 4.8250003 10531008
-0.22499993 2.125 4.8150001 10531008
-0.22499993 2.135 4.8049998 10531008
-0.20499994 2.125 4.8049998 10531008
-0.19499993 2.125 4.8049998 10531008
-0.20499994 2.125 4.8250003 10531008
-0.21499994 2.125 4.8450003 10531008
-0.21499994 2.115 4.8650002 10531008
-0.19499993 2.125 4.855 10531008
-0.19499993 2.135 4.835 10531008
-0.18499994 2.135 4.8049998 10531008
-0.17499994 2.135 4.8049998 10531008
-0.15499994 2.125 4.7950001 10531008
-0.18499994 2.125 4.8650002 10531008
-0.18499994 2.135 4.835 10531008
-0.17499994 2.135 4.8450003 10531008
-0.17499994 2.135 4.8650002 10531008
-0.15499994 2.135 4.8450003 10531008
-0.18499994 2.125 4.875 10531008
-0.16499995 2.115 4.895 10531008
-0.16499995 2.125 4.9349999 10531008
-0.24499995 2.105 4.9650002 11583680
-0.17499994 2.105 4.9650002 10531008
-0.16499995 2.105 4.9949999 10531008
-0.16499995 2.115 4.9549999 10531008
-0.16499995 2.115 4.9749999 10531008
-0.14499994 2.125 4.8049998 10531008
-0.13499995 2.135 4.8049998 10531008
-0.11499994 2.135 4.8150001 10531008
-0.14499994 2.135 4.835 10531008
-0.13499995 2.135 4.8450003 10531008
-0.14499994 2.135 4.8650002 10531008
-0.13499995 2.135 4.8650002 10531008
-0.11499994 2.125 4.8650002 10531008
-0.11499994 2.135 4.8450003 10531008
-0.094999939 2.125 4.8250003 10531008
-0.10499994 2.145 4.7950001 10531008
-0.094999939 2.145 4.8049998 10531008
-0.10499994 2.135 4.8150001 10531008
-0.094999939 2.135 4.8150001 10531008
-0.074999943 2.125 4.8250003 10531008
-0.074999943 2.135 4.7950001 10531008
-0.074999943 2.135 4.8150001 10531008
-0.10499994 2.125 4.8450003 10531008
-0.094999939 2.125 4.835 10531008
-0.094999939 2.115 4.855 10531008
-0.10499994 2.135 4.835 10531008
-0.074999943 2.125 4.8450003 10531008
-0.074999943 2.115 4.8650002 10530992
-0.13499995 2.125 4.8850002 10531008
-0.14499994 2.125 4.9050002 10531008
-0.13499995 2.125 4.9050002 10531008
-0.11499994 2.125 4.8850002 10531008
-0.14499994 2.125 4.9349999 10531008
-0.13499995 2.125 4.9349999 10531008
-0.12499994 2.115 4.915 10531008
-0.12499994 2.125 4.915 10531008
-0.12499994 2.115 4.9450002 10531008
-0.084999941 2.105 4.9250002 10530992
-0.10499994 2.115 4.8850002 10531008
-0.10499994 2.125 4.875 10531008
-0.094999939 2.115 4.8850002 10531008
-0.084999941 2.115 4.8850002 10530992
-0.10499994 2.115 4.915 10531008
-0.094999939 2.115 4.915 10531008
-0.10499994 2.115 4.9450002 10531008
-0.094999939 2.115 4.9450002 10530992
-0.064999938 2.135 4.8049998 10531008
-0.05499994 2.135 4.7950001 10530992
-0.05499994 2.135 4.8049998 10531008
-0.034999941 2.125 4.8250003 10531008
-0.034999941 2.135 4.7950001 10531008
-0.034999941 2.135 4.8049998 10531008
-0.064999938 2.115 4.8650002 10530992
-0.064999938 2.125 4.855 10530992
-0.05499994 2.125 4.855 10530992
-0.064999938 2.135 4.835 10531008
-0.05499994 2.135 4.835 10531008
-0.034999941 2.125 4.855 10530992
-0.024999941 2.125 4.8250003 10530992
-0.024999941 2.135 4.7950001 10531008
-0.01499994 2.145 4.8049998 10531008
-0.024999941 2.135 4.8150001 10530992
-0.01499994 2.135 4.8250003 10530992
-0.0049999403 2.135 4.7950001 10530992
-0.01499994 2.125 4.8450003 10530992
-0.024999941 2.125 4.855 10530992
-0.01499994 2.115 4.855 10530992
-0.01499994 2.135 4.8450003 10530992
-0.0049999403 2.115 4.8650002 10530992
-0.0049999403 2.125 4.855 10530992
-0.0049999403 2.145 4.835 10530992
-0.0049999403 2.145 4.855 10530992
-0.064999938 2.115 4.8850002 10530992
-0.05499994 2.125 4.875 10530992
-0.05499994 2.115 4.895 10530992
-0.044999942 2.125 4.875 10530992
-0.044999942 2.125 4.9050002 10530992
-0.064999938 2.115 4.915 10530992
-0.064999938 2.115 4.9349999 10530992
-0.05499994 2.115 4.9450002 10530992
-0.044999942 2.115 4.9250002 10530992
-0.044999942 2.115 4.9450002 10530992
-0.024999941 2.125 4.875 10530992
-0.024999941 2.125 4.9050002 10530992
-0.01499994 2.115 4.895 10530992
-0.024999941 2.125 4.9349999 10530992
-0.13499995 2.105 4.9650002 10531008
-0.12499994 2.105 4.9650002 10531008
-0.14499994 2.125 4.9650002 10531008
-0.13499995 2.115 4.9549999 10531008
-0.14499994 2.115 4.9749999 10531008
-0.10499994 2.105 4.9650002 10530992
-0.094999939 2.105 4.9650002 10530992
-0.084999941 2.105 4.9650002 10530992
-0.064999938 2.105 4.9650002 10530992
-0.05499994 2.105 4.9650002 10530992
-0.05499994 2.105 4.9949999 10530992
-0.044999942 2.115 4.9749999 10530992
-0.064999938 2.115 5.0050001 10530992
-0.01499994 2.105 5.0149999 10530992
-0.0049999403 2.105 5.0149999 10530992
-0.024999941 2.115 4.9850001 10530992
-0.044999942 2.095 5.0549998 10530992
-0.0049999403 2.095 5.0450001 9478320
-4.1549997 0.54500008 6.3250003 3166352
-3.9949999 0.46500006 6.375 15790320
-4.0949998 0.63500005 6.3150001 3170464
-4.0949998 0.64500004 6.3250003 2121888
-4.0650001 0.66500008 6.2950001 3170464
-4.0450001 0.66500008 6.3049998 3170464
-4.0450001 0.67500007 6.2649999 3170464
-4.1149998 0.86500007 6.3450003 3170480
-4.105 0.86500007 6.3650002 3170480
-4.085 0.87500006 6.335 3170480
-4.0749998 0.89500004 6.3450003 3170480
-4.0549998 0.90500003 6.3150001 3170480
-4.125 1.0550001 6.2049999 2113648
-4.105 1.0050001 6.2350001 4219040
-4.125 1.0350001 6.2350001 2113648
-4.0050001 1.0050001 6.2649999 3174576
-4.0549998 1.1650001 6.2750001 3170464
-4.855 0.78500009 7.4250002 3166368
-5.0450001 1.0150001 7.145 1060944
-4.1149998 0.46500006 6.415 3170480
-4.2750001 1.365 6.0349998 3162224
-4.2150002 1.4250001 6.1750002 2109536
-4.1749997 1.3850001 6.2049999 3162224
-4.2350001 1.5650001 6.145 1060960
-4.2649999 1.5650001 6.165 3166320
-4.2150002 1.455 6.125 1060944
-4.1950002 1.4450001 6.125 3162224
-4.2249999 1.5250001 6.1350002 2109520
-4.2449999 1.7750001 5.9549999 3162208
-4.2350001 1.7850001 6.0250001 3162224
-4.1749997 1.7550001 6.105 2113648
-4.165 1.8950001 6.105 3162208
-4.1149998 1.3950001 6.2049999 3162224
-4.085 1.375 6.1849999 3162240
-4.0650001 1.3850001 6.165 3162240
-4.0149999 1.4050001 6.1950002 4223136
-4.0050001 1.3950001 6.2049999 4219040
-4.0749998 1.4250001 6.2649999 4219040
-4.0149999 1.3050001 6.2649999 4223152
-4.0250001 1.325 6.2849998 4223152
-4.0149999 1.345 6.2950001 4223152
-4.0549998 1.3950001 6.2350001 4219040
-4.0149999 1.4050001 6.2649999 4223152
-4.145 1.5650001 6.1849999 2113648
-4.0749998 1.8050001 6.0650001 3166320
-4.1349998 1.6450001 6.1550002 3166320
-4.0949998 1.6850001 6.1950002 3166320
-4.0149999 1.6650001 6.125 4219024
-4.0250001 1.6550001 6.145 4219024
-4.0549998 1.6750001 6.2249999 4219040
-4.0650001 1.615 6.2649999 4219040
-4.0650001 1.6350001 6.2750001 4219040
-4.0149999 1.6750001 6.2350001 4223136
-4.085 1.7750001 6.1950002 3166320
-4.1349998 1.865 6.085 3162224
-4.0050001 1.8050001 6.1350002 4219024
-4.0349998 1.8050001 6.1750002 4219040
-4.0149999 1.8050001 6.1750002 4219040
-4.0349998 1.835 6.1750002 4219024
-4.0050001 1.8050001 6.3150001 5271712
-3.9849999 1.745 6.2249999 4223136
-3.9849999 1.735 6.2550001 5271712
-3.9849999 1.8050001 6.1350002 4219024
-4.2649999 1.985 5.9850001 3162208
-4.1849999 1.975 6.0050001 3162208
-4.2049999 2.0050001 6.0650001 2113632
-4.2449999 2.1849999 5.895 9478304
-4.2049999 2.2050002 5.8650002 9482416
-4.2750001 2.105 5.9549999 10526896
-4.2649999 2.115 5.9349999 10526896
-4.2449999 2.125 5.915 9478320
-4.3049998 2.1849999 5.9850001 9478304
-4.2649999 2.1950002 5.9650002 10530992
-4.2649999 2.165 5.9949999 2113616
-4.1849999 2.105 5.9949999 2113632
-4.2249999 2.345 5.855 8425632
-4.2249999 2.335 5.875 8421520
-4.2150002 2.365 5.855 8421520
-4.1950002 2.365 5.835 8421520
-4.165 2.4349999 5.7849998 8421520
-4.1749997 2.4550002 5.7950001 8421504
-4.2249999 2.415 5.9050002 7372944
-4.1950002 2.4850001 5.875 7372928
-4.1849999 2.5450001 5.8450003 7372928
-4.0149999 2.0450001 6.125 3162224
-4.1149998 2.095 6.0950003 3162208
-4.0450001 2.105 6.1350002 3162208
-4.0450001 2.115 6.165 3162224
-4.0349998 2.135 6.1849999 3166320
-4.0050001 2.145 6.1550002 3166336
-4.0349998 2.2250001 6.1150002 2109520
-4.0250001 2.2150002 6.1550002 2113632
-3.9849999 2.0250001 6.105 4214912
-3.9749999 2.075 6.1750002 3166336
-3.9849999 2.105 6.1950002 3166336
-3.9649999 2.105 6.1950002 3166336
-3.9849999 2.145 6.1550002 3166336
-3.9849999 2.155 6.1350002 3166320
-3.9849999 2.175 6.125 3162224
-3.9649999 2.155 6.125 3162224
-3.9549999 2.165 6.1150002 3162224
-3.9849999 2.2150002 6.0950003 2109536
-4.125 2.3050001 5.9749999 2109520
-4.085 2.2350001 6.0349998 2105408
-4.0949998 2.2950001 6.0450001 1056832
-4.0949998 2.2950001 6.0650001 2109520
-4.0749998 2.3050001 6.0450001 2105408
-4.085 2.345 6.0450001 2105408
-4.0450001 2.2750001 6.0650001 2109520
-4.0349998 2.2950001 6.0650001 2109520
-3.9949999 2.5250001 6.0149999 1056816
-3.9349999 2.365 6.0250001 2105408
-3.9549999 2.5150001 6.0450001 1056832
-3.9449999 2.4950001 6.0549998 1056832
-4.0250001 2.2850001 6.0750003 2109520
-4.0549998 2.3150001 6.125 2109520
-3.9649999 2.2650001 6.1150002 2113632
-3.9649999 2.3050001 6.105 2113632
-3.9649999 2.2850001 6.1150002 2113632
-3.9549999 2.2950001 6.125 2113632
-3.9649999 2.3150001 6.145 3162208
-3.9449999 2.325 6.1150002 2113632
-3.885 2.3050001 6.1750002 3162208
-3.865 2.2450001 6.1750002 5267600
-3.865 2.345 6.105 2109536
-3.885 2.4650002 6.1350002 2109520
-3.855 2.4450002 6.125 2109536
-3.855 2.425 6.2249999 10535136
-3.845 2.405 6.2049999 10531024
-3.845 2.5050001 6.1150002 2109520
-3.605 1.235 6.5450001 15790320
-2.8049998 0.31500006 6.9949999 15790320
-2.835 0.91500008 7.145 15790320
-2.7249999 0.85500008 7.0650001 15790320
-2.7149999 0.83500004 7.2449999 15790320
-2.6849999 0.73500007 7.2150002 15790320
-2.615 0.85500008 7.2950001 15790320
-3.7349999 2.2150002 6.2049999 14737648
-3.645 2.0550001 6.1350002 15790320
-3.625 2.0250001 6.0950003 15790320
-3.8049998 2.375 6.125 9478336
-3.8150001 2.5050001 6.0950003 2109520
-3.7949998 1.3150001 6.4850001 13693168
-3.7849998 1.345 6.5050001 15790320
-3.635 1.725 6.5450001 15790320
-3.595 1.715 6.5149999 15790320
-2.7449999 2.085 6.8250003 11583696
-2.7349999 2.095 6.8450003 10531008
-2.7449999 2.115 6.8150001 10535120
-2.7349999 2.115 6.855 7372944
-2.7249999 2.165 6.7849998 11583696
-2.7949998 2.175 6.9450002 11587808
-2.7649999 2.095 6.915 15790320
-2.7449999 2.115 6.9250002 9482432
-2.7249999 2.125 7.0149999 10531008
-2.7849998 2.1950002 6.9250002 11583696
-2.595 2.0650001 6.8150001 6324384
-2.675 2.115 6.7849998 11587808
-2.7049999 2.105 6.8250003 7377056
-2.6949999 2.085 6.8450003 8429744
-2.6849999 2.135 6.8150001 11587824
-2.665 2.115 6.855 9486544
-2.645 2.125 6.855 11587808
-2.625 2.075 6.855 8429744
-2.595 2.075 6.8650002 6328480
-2.675 2.075 6.9349999 10531008
-2.675 2.115 6.9349999 7377056
-2.665 2.125 6.9050002 10535136
-2.655 2.135 6.9349999 10539232
-2.645 2.155 7.0650001 8429744
-1.515 -0.29499993 5.5050001 9482352
-1.525 -0.27499995 5.5050001 11583664
-1.525 -0.26499993 5.5050001 10530976
-1.535 -0.32499993 5.5450001 11583664
-1.535 -0.30499995 5.5250001 11579552
-1.535 -0.29499993 5.5149999 11583664
-1.515 -0.30499995 5.5250001 9482336
-1.515 -0.27499995 5.5149999 11583648
-1.515 -0.26499993 5.5149999 10530960
-1.525 -0.23499994 5.5050001 11583680
-1.525 -0.21499994 5.5050001 12632256
-1.535 -0.24499995 5.5149999 11583664
-1.525 -0.23499994 5.5250001 11583648
-1.515 -0.24499995 5.5250001 9482368
-1.525 -0.21499994 5.5349998 10535072
-1.515 -0.22499993 5.5450001 10530976
-1.535 -0.20499994 5.5149999 11583664
-1.535 -0.18499994 5.5349998 11583680
-1.535 -0.17499994 5.5349998 12636352
-1.525 -0.20499994 5.5349998 9482352
-1.525 -0.18499994 5.5349998 10530944
-1.525 -0.17499994 5.5349998 11583648
-1.515 -0.17499994 5.5450001 10530976
-1.505 -0.29499993 5.5149999 10535072
-1.505 -0.27499995 5.5250001 10530976
-1.505 -0.26499993 5.5349998 9478288
-1.505 -0.24499995 5.5450001 10535024
-1.505 -0.23499994 5.5450001 10535056
-1.4949999 -0.23499994 5.5650001 10530992
-1.505 -0.22499993 5.5750003 10530992
-1.505 -0.20499994 5.5450001 10530944
-1.505 -0.18499994 5.5450001 10530976
-1.505 -0.20499994 5.5650001 10530992
-1.505 -0.19499993 5.5750003 10530992
-1.505 -0.17499994 5.5750003 10530992
-1.5549999 -0.12499994 5.5349998 13689056
-1.535 -0.15499994 5.5349998 10530992
-1.535 -0.14499994 5.5250001 11583680
-1.525 -0.15499994 5.5349998 9482352
-1.525 -0.14499994 5.5450001 9482368
-1.515 -0.15499994 5.5549998 9482384
-1.515 -0.14499994 5.5549998 10530960
-1.535 -0.12499994 5.5250001 12636352
-1.535 -0.11499994 5.5349998 11583664
-1.535 -0.094999939 5.5349998 12636368
-1.525 -0.12499994 5.5349998 11583664
-1.525 -0.11499994 5.5349998 9482352
-1.515 -0.11499994 5.5450001 10530960
-1.525 -0.094999939 5.5349998 9482352
-1.515 -0.12499994 5.5549998 10530976
-1.5549999 -0.064999938 5.5549998 13689056
-1.5549999 -0.05499994 5.5549998 13689056
-1.5549999 -0.024999941 5.5450001 13689056
-1.5549999 -0.034999941 5.5549998 13689056
-1.535 -0.084999941 5.5349998 12636368
-1.545 -0.064999938 5.5450001 12636368
-1.525 -0.084999941 5.5349998 10535056
-1.525 -0.064999938 5.5450001 11583664
-1.525 -0.05499994 5.5450001 10530992
-1.545 -0.05499994 5.5549998 11583680
-1.515 -0.084999941 5.5549998 10530976
-1.515 -0.064999938 5.5549998 10530992
-1.545 -0.034999941 5.5450001 12636368
-1.535 -0.024999941 5.5349998 13689040
-1.525 -0.034999941 5.5349998 10530992
-1.525 -0.024999941 5.5250001 11583680
-1.505 -0.16499995 5.5750003 10530992
-1.505 -0.14499994 5.5650001 10530992
-1.4949999 -0.14499994 5.585 10530992
-1.4849999 -0.13499995 5.585 10530992
-1.505 -0.094999939 5.5450001 10535056
-1.505 -0.12499994 5.5650001 10530992
-1.505 -0.11499994 5.5650001 10530992
-1.4949999 -0.094999939 5.5650001 10530992
-1.4849999 -0.11499994 5.585 10530992
-1.4749999 -0.11499994 5.5750003 10530992
-1.4849999 -0.094999939 5.5750003 10530992
-1.505 -0.05499994 5.5450001 10530992
-1.505 -0.084999941 5.5650001 10530992
-1.4949999 -0.064999938 5.5650001 10530992
-1.4949999 -0.05499994 5.5549998 10530992
-1.4849999 -0.084999941 5.5650001 10530992
-1.4849999 -0.064999938 5.5750003 10530992
-1.505 -0.034999941 5.5349998 10530992
-1.505 -0.024999941 5.5349998 10530992
-1.4949999 -0.024999941 5.5450001 10530992
-1.4949999 -0.034999941 5.5549998 10530992
-1.4949999 -0.16499995 5.5950003 10530992
-1.4849999 -0.13499995 5.605 10530992
-2.155 0.065000057 5.145 13689056
-2.175 0.13500006 5.125 15790320
-2.165 0.14500006 5.145 15790320
-2.135 0.065000057 5.1350002 14741744
-2.115 0.10500006 5.1150002 15790320
-2.135 0.13500006 5.1150002 15790320
-2.125 0.11500006 5.145 15790320
-2.125 0.13500006 5.1150002 15790320
-2.125 0.14500006 5.125 15790320
-2.125 0.14500006 5.145 15790320
-2.115 0.11500006 5.165 15790320
-2.125 0.13500006 5.1550002 15790320
-2.115 0.13500006 5.1750002 15790320
-2.115 0.14500006 5.1750002 15790320
-2.095 0.08500006 5.1150002 11587808
-2.105 0.10500006 5.1350002 15790320
-2.095 0.10500006 5.1350002 15790320
-2.085 0.075000063 5.1150002 13693168
-2.085 0.08500006 5.125 11587808
-2.075 0.08500006 5.125 11587808
-2.075 0.075000063 5.1350002 12644592
-2.075 0.10500006 5.125 15790320
-2.075 0.11500006 5.125 15790320
-2.095 0.11500006 5.1550002 15790320
-2.105 0.13500006 5.165 15790320
-2.105 0.14500006 5.1750002 15790320
-2.095 0.14500006 5.1849999 15790320
-2.075 0.11500006 5.1849999 15790320
-2.085 0.13500006 5.165 15790320
-2.075 0.13500006 5.1550002 15790320
-2.085 0.14500006 5.1849999 15790320
-2.075 0.13500006 5.2049999 15790320
-2.075 0.14500006 5.2049999 15790320
-2.075 0.13500006 5.2249999 15790320
-2.165 0.18500006 5.125 15790320
-2.165 0.20500006 5.1350002 15790320
-2.135 0.15500006 5.1150002 15790320
-2.135 0.17500006 5.1150002 15790320
-2.145 0.18500006 5.145 15790320
-2.135 0.17500006 5.1350002 15790320
-2.135 0.18500006 5.145 15790320
-2.125 0.15500006 5.1150002 15790320
-2.135 0.18500006 5.165 15790320
-2.125 0.16500007 5.1550002 15790320
-2.125 0.16500007 5.1750002 15790320
-2.125 0.17500006 5.1550002 15790320
-2.125 0.17500006 5.1750002 15790320
-2.125 0.18500006 5.1750002 15790320
-2.145 0.20500006 5.125 15790320
-2.135 0.20500006 5.145 15790320
-2.145 0.21500006 5.1350002 15790320
-2.125 0.20500006 5.165 15790320
-2.105 0.16500007 5.1750002 15790320
-2.095 0.16500007 5.1750002 15790320
-2.105 0.17500006 5.165 15790320
-2.095 0.17500006 5.1750002 15790320
-2.095 0.18500006 5.1849999 15790320
-2.085 0.16500007 5.1849999 15790320
-2.085 0.17500006 5.1750002 15790320
-2.115 0.18500006 5.1950002 15790320
-2.115 0.20500006 5.1950002 15790320
-2.075 0.16500007 5.1950002 15790320
-2.085 0.18500006 5.1950002 15790320
-2.075 0.17500006 5.2049999 15790320
-2.105 0.20500006 5.1950002 15790320
-2.095 0.20500006 5.2150002 15790320
-2.095 0.19500005 5.2550001 15790320
-2.0650001 0.065000057 5.1150002 13693168
-2.0650001 0.065000057 5.145 13693168
-2.0650001 0.075000063 5.145 12640496
-2.0650001 0.08500006 5.1350002 11587808
-2.0549998 0.08500006 5.145 11587808
-2.0650001 0.10500006 5.1350002 15790320
-2.0549998 0.075000063 5.165 12640496
-2.0549998 0.10500006 5.1550002 15790320
-2.0549998 0.10500006 5.1849999 15790320
-2.0449998 0.095000058 5.165 11587808
-2.0549998 0.11500006 5.1150002 15790320
-2.0650001 0.14500006 5.2150002 15790320
-2.0650001 0.16500007 5.2049999 15790320
-1.8349999 0.24500006 5.145 10530992
-1.8349999 0.25500005 5.125 10531008
-1.8649999 0.25500005 5.1550002 10531008
-1.875 0.24500006 5.1950002 10530992
-1.8349999 0.23500006 5.2449999 12632272
-1.8049999 0.25500005 5.3049998 10531008
-1.785 0.24500006 5.395 10531008
-1.795 0.12500006 5.5549998 13693168
-1.8049999 0.14500006 5.585 13693168
-1.795 0.14500006 5.585 13693168
-1.785 0.12500006 5.5750003 13693168
-1.755 0.11500006 5.5650001 14741744
-1.785 0.12500006 5.5950003 13689072
-1.785 0.14500006 5.5950003 13693168
-1.775 0.14500006 5.6150002 10531008
-1.765 0.12500006 5.605 10535104
-1.755 0.12500006 5.6150002 11583696
-1.755 0.14500006 5.625 10535120
-1.8049999 0.15500006 5.5750003 13689072
-1.795 0.15500006 5.585 13693168
-1.775 0.15500006 5.5750003 13693168
-1.775 0.17500006 5.585 14741744
-1.765 0.20500006 5.585 14741744
-1.775 0.23500006 5.5750003 13689072
-1.785 0.18500006 5.605 14741744
-1.765 0.15500006 5.605 10531008
-1.775 0.17500006 5.6350002 12640464
-1.765 0.15500006 5.6350002 9478320
-1.765 0.17500006 5.645 9482416
-1.755 0.17500006 5.6550002 9478336
-1.775 0.19500005 5.625 13693152
-1.755 0.20500006 5.6150002 14741744
-1.765 0.21500006 5.5950003 14741744
-1.755 0.21500006 5.5950003 13689072
-1.765 0.19500005 5.645 10535088
-1.775 0.24500006 5.5950003 11583696
-1.775 0.23500006 5.6150002 13689072
-1.755 0.23500006 5.625 12636368
-1.775 0.25500005 5.6350002 11583696
-1.765 0.25500005 5.645 12636368
-1.7449999 0.11500006 5.585 14741744
-1.7249999 0.11500006 5.5750003 14741744
-1.7449999 0.12500006 5.6150002 11583696
-1.7349999 0.12500006 5.625 12636384
-1.7449999 0.14500006 5.6350002 11583696
-1.7349999 0.14500006 5.645 11583696
-1.7249999 0.12500006 5.645 12636384
-1.7149999 0.12500006 5.665 12636384
-1.7249999 0.14500006 5.6550002 12636384
-1.6949999 0.11500006 5.665 14741744
-1.675 0.11500006 5.665 14741744
-1.7149999 0.14500006 5.6750002 12636384
-1.7049999 0.14500006 5.6849999 11583696
-1.6949999 0.13500006 5.6750002 11583696
-1.6849999 0.13500006 5.6750002 12636368
-1.6849999 0.14500006 5.6849999 12636368
-1.665 0.11500006 5.6550002 15790320
-1.665 0.13500006 5.665 13689056
-1.655 0.14500006 5.665 13689072
-1.645 0.11500006 5.645 15790320
-1.645 0.12500006 5.6550002 13689072
-1.625 0.11500006 5.6150002 15790320
-1.5949999 0.11500006 5.5950003 15790320
-1.6049999 0.12500006 5.6150002 14741744
-1.6049999 0.14500006 5.625 14741744
-1.625 0.12500006 5.6350002 14741744
-1.625 0.14500006 5.645 13693168
-1.665 0.14500006 5.6750002 13689072
-1.7449999 0.16500007 5.645 9482432
-1.7349999 0.16500007 5.6550002 9478320
-1.7449999 0.17500006 5.665 9478336
-1.7249999 0.16500007 5.665 9478320
-1.7449999 0.20500006 5.6150002 11587792
-1.7349999 0.21500006 5.605 11587792
-1.7249999 0.22500005 5.6150002 11583696
-1.7449999 0.19500005 5.645 10535120
-1.7349999 0.20500006 5.645 11583696
-1.7349999 0.19500005 5.6550002 11583696
-1.7249999 0.20500006 5.665 11583696
-1.7249999 0.22500005 5.645 11583696
-1.7149999 0.16500007 5.6750002 10531008
-1.7249999 0.17500006 5.6750002 9478320
-1.7149999 0.17500006 5.6950002 10531008
-1.7349999 0.19500005 5.6849999 11583696
-1.7249999 0.20500006 5.6950002 11583696
-1.7149999 0.19500005 5.6950002 11583696
-1.7149999 0.22500005 5.6750002 11583696
-1.7049999 0.16500007 5.6849999 10531008
-1.7049999 0.17500006 5.6950002 9478320
-1.6849999 0.16500007 5.6849999 12636368
-1.675 0.16500007 5.6849999 13689056
-1.675 0.17500006 5.6849999 12636384
-1.6849999 0.17500006 5.6950002 11583696
-1.7049999 0.19500005 5.6950002 9478320
-1.7049999 0.20500006 5.6950002 10531008
-1.6949999 0.20500006 5.6950002 10531008
-1.7049999 0.22500005 5.6950002 10531008
-1.6849999 0.19500005 5.6950002 11583680
-1.6849999 0.22500005 5.6750002 11583696
-1.7449999 0.23500006 5.6150002 11583696
-1.7249999 0.23500006 5.6150002 11583696
-1.7249999 0.25500005 5.625 11583696
-1.7449999 0.25500005 5.6350002 12632272
-1.7449999 0.26500005 5.6350002 12632272
-1.7349999 0.26500005 5.6350002 13689056
-1.7149999 0.23500006 5.645 11583696
-1.7249999 0.25500005 5.6550002 12632272
-1.7249999 0.26500005 5.6550002 12632272
-1.7449999 0.28500006 5.625 12636384
-1.7349999 0.29500005 5.605 12640480
-1.7249999 0.28500006 5.625 13689072
-1.7249999 0.29500005 5.625 13689072
-1.7249999 0.28500006 5.6550002 12636368
-1.7249999 0.29500005 5.665 12636368
-1.7149999 0.23500006 5.6849999 11583696
-1.7149999 0.26500005 5.6849999 11583696
-1.7149999 0.25500005 5.6950002 11583696
-1.7249999 0.28500006 5.6950002 11583696
-1.7249999 0.30500007 5.7049999 12636368
-1.7049999 0.23500006 5.6950002 10531008
-1.7049999 0.25500005 5.7049999 10531008
-1.6849999 0.23500006 5.6849999 10531008
-1.675 0.23500006 5.6849999 12636384
-1.6849999 0.25500005 5.6950002 10531008
-1.675 0.25500005 5.6950002 12636384
-1.6949999 0.27500007 5.7049999 10531008
-1.6949999 0.28500006 5.7049999 11583696
-1.675 0.28500006 5.6849999 12636384
-1.675 0.27500007 5.6950002 12636384
-1.675 0.30500007 5.6849999 12636384
-1.6849999 0.30500007 5.6950002 11583680
-1.7049999 0.27500007 5.7150002 10531008
-1.7049999 0.28500006 5.7150002 11583680
-1.7049999 0.30500007 5.7150002 11583680
-1.635 0.16500007 5.665 13689072
-1.635 0.17500006 5.665 13689072
-1.655 0.22500005 5.665 13689056
-1.645 0.19500005 5.665 13689072
-1.635 0.19500005 5.6550002 13689072
-1.635 0.22500005 5.6550002 13689072
-1.5949999 0.15500006 5.6150002 14741744
-1.5949999 0.17500006 5.625 14741744
-1.6149999 0.16500007 5.645 14741744
-1.6149999 0.17500006 5.645 14741744
-1.5949999 0.19500005 5.625 14741744
-1.5949999 0.20500006 5.625 14741744
-1.5949999 0.22500005 5.625 14741744
-1.625 0.20500006 5.645 13689072
-1.6149999 0.20500006 5.6350002 14741744
-1.6149999 0.19500005 5.6550002 14741744
-1.6149999 0.22500005 5.645 14741744
-1.655 0.16500007 5.6750002 13689072
-1.655 0.17500006 5.6750002 13689072
-1.665 0.19500005 5.6750002 12636384
-1.665 0.20500006 5.6849999 12636384
-1.655 0.20500006 5.6750002 13689056
-1.665 0.22500005 5.6750002 12636384
-1.635 0.23500006 5.665 13689072
-1.635 0.25500005 5.665 13689072
-1.635 0.26500005 5.6550002 13689072
-1.645 0.28500006 5.665 13689056
-1.635 0.28500006 5.6550002 13689072
-1.645 0.29500005 5.665 13689056
-1.635 0.29500005 5.6550002 13689072
-1.5949999 0.23500006 5.625 14741744
-1.5949999 0.25500005 5.625 14741744
-1.5949999 0.26500005 5.625 14741744
-1.6149999 0.23500006 5.645 14741744
-1.6149999 0.25500005 5.645 14741744
-1.6149999 0.26500005 5.6350002 14741744
-1.6149999 0.28500006 5.645 14741744
-1.6149999 0.29500005 5.645 14741744
-1.5949999 0.28500006 5.6350002 14741744
-1.5949999 0.29500005 5.6350002 14741744
-1.655 0.23500006 5.6750002 13689056
-1.655 0.25500005 5.6750002 13689056
-1.655 0.26500005 5.6750002 13689056
-1.765 0.57500005 5.665 13689072
-1.7449999 0.32500005 5.625 12636384
-1.7349999 0.31500006 5.6150002 12640480
-1.7349999 0.31500006 5.6350002 13689072
-1.7349999 0.32500005 5.6350002 13689072
-1.7449999 0.34500006 5.6350002 12636384
-1.7349999 0.34500006 5.645 13689072
-1.7249999 0.31500006 5.665 12636368
-1.7249999 0.32500005 5.665 12636368
-1.7249999 0.34500006 5.665 12636368
-1.7449999 0.35500005 5.625 12636384
-1.7449999 0.37500006 5.625 12636384
-1.7449999 0.38500005 5.6150002 12636384
-1.7349999 0.35500005 5.645 13689072
-1.7349999 0.37500006 5.6350002 12640496
-1.7349999 0.38500005 5.6350002 13689072
-1.7249999 0.37500006 5.665 12636384
-1.7149999 0.31500006 5.6950002 12636368
-1.7149999 0.33500007 5.6750002 12636368
-1.7149999 0.34500006 5.6750002 12636368
-1.7249999 0.36500007 5.6750002 12636368
-1.7149999 0.36500007 5.6849999 12636368
-1.7149999 0.37500006 5.6849999 12636368
-1.7049999 0.31500006 5.7049999 11583680
-1.6949999 0.31500006 5.7049999 11583696
-1.7049999 0.34500006 5.6849999 11583696
-1.7049999 0.33500007 5.6950002 11583680
-1.6949999 0.33500007 5.7049999 11583696
-1.675 0.31500006 5.6849999 12636384
-1.6849999 0.34500006 5.6950002 12636368
-1.675 0.33500007 5.6950002 12636384
-1.675 0.34500006 5.7049999 12636384
-1.7049999 0.36500007 5.6950002 11583696
-1.6949999 0.36500007 5.6950002 12636368
-1.7049999 0.37500006 5.7049999 11583696
-1.6949999 0.37500006 5.7049999 12636368
-1.675 0.36500007 5.7049999 12636384
-1.675 0.37500006 5.7049999 12636384
-1.7449999 0.40500006 5.6150002 12636384
-1.7349999 0.41500005 5.5950003 12636384
-1.7349999 0.41500005 5.625 12640480
-1.7249999 0.40500006 5.625 12640496
-1.7249999 0.39500007 5.6550002 11587792
-1.7249999 0.40500006 5.665 12636368
-1.7349999 0.44500005 5.605 12636384
-1.7449999 0.43500006 5.6150002 12636384
-1.7349999 0.46500006 5.6150002 12636384
-1.7349999 0.43500006 5.6350002 12640496
-1.7349999 0.45500007 5.6350002 12640496
-1.7349999 0.46500006 5.6350002 12640480
-1.7249999 0.43500006 5.665 12636384
-1.7249999 0.45500007 5.665 12636384
-1.7249999 0.46500006 5.665 12636384
-1.7149999 0.39500007 5.6750002 12636368
-1.7149999 0.40500006 5.6849999 12636368
-1.7249999 0.42500007 5.6750002 12636384
-1.7149999 0.42500007 5.6849999 12636368
-1.7149999 0.43500006 5.6849999 12636368
-1.7149999 0.45500007 5.6750002 12636384
-1.7049999 0.39500007 5.6950002 11583696
-1.7049999 0.40500006 5.7049999 11583696
-1.6949999 0.39500007 5.7049999 12636368
-1.6949999 0.40500006 5.7049999 12636368
-1.7049999 0.42500007 5.6950002 11583696
-1.6949999 0.42500007 5.6950002 12636368
-1.675 0.39500007 5.7049999 12636384
-1.675 0.41500005 5.7049999 12636384
-1.675 0.42500007 5.6950002 12636384
-1.7049999 0.44500005 5.6950002 11583696
-1.6949999 0.44500005 5.6950002 12636368
-1.7049999 0.45500007 5.6849999 11583696
-1.675 0.44500005 5.6950002 12636384
-1.675 0.45500007 5.6849999 12636384
-1.6849999 0.45500007 5.6950002 12636368
-1.655 0.31500006 5.665 13689056
-1.635 0.31500006 5.6550002 13689072
-1.635 0.33500007 5.665 13689072
-1.5949999 0.31500006 5.625 14741744
-1.5949999 0.32500005 5.6150002 14741744
-1.5949999 0.34500006 5.625 14741744
-1.6149999 0.31500006 5.6350002 14741744
-1.6149999 0.34500006 5.645 14741744
-1.6049999 0.32500005 5.6350002 14741744
-1.5949999 0.38500005 5.625 14741744
-1.6149999 0.36500007 5.6550002 14741744
-1.6149999 0.37500006 5.6550002 14741744
-1.5949999 0.35500005 5.6350002 14741744
-1.5949999 0.37500006 5.6350002 14741744
-1.655 0.33500007 5.6849999 13689056
-1.655 0.34500006 5.6950002 13689056
-1.635 0.34500006 5.6750002 13689072
-1.655 0.36500007 5.6950002 13689056
-1.655 0.37500006 5.6849999 13689056
-1.635 0.36500007 5.6750002 13689072
-1.635 0.37500006 5.6750002 13689072
-1.635 0.43500006 5.665 13689072
-1.635 0.45500007 5.6550002 13689072
-1.635 0.46500006 5.665 13689072
-1.5949999 0.40500006 5.625 14741744
-1.6149999 0.39500007 5.6550002 14741744
-1.6149999 0.40500006 5.6550002 14741744
-1.6149999 0.42500007 5.645 14741744
-1.5949999 0.42500007 5.6350002 14741744
-1.5949999 0.43500006 5.625 14741744
-1.5949999 0.45500007 5.625 14741744
-1.5949999 0.46500006 5.625 14741744
-1.6149999 0.43500006 5.645 14741744
-1.6149999 0.45500007 5.645 14741744
-1.6149999 0.46500006 5.645 14741744
-1.655 0.39500007 5.6849999 13689056
-1.655 0.40500006 5.6849999 13689056
-1.655 0.42500007 5.6849999 13689056
-1.635 0.39500007 5.6750002 13689072
-1.635 0.40500006 5.6750002 13689072
-1.635 0.42500007 5.6750002 13689072
-1.655 0.43500006 5.6849999 13689056
-1.655 0.45500007 5.6750002 13689056
-1.655 0.46500006 5.6750002 13689056
-1.7349999 0.47500005 5.605 12636384
-1.7349999 0.49500006 5.6150002 12636384
-1.7349999 0.48500007 5.6350002 12640496
-1.7349999 0.49500006 5.6350002 12640480
-1.7449999 0.51500005 5.6150002 12636384
-1.7449999 0.52500004 5.625 12636384
-1.7449999 0.54500008 5.625 12636384
-1.7349999 0.51500005 5.645 12636384
-1.7349999 0.52500004 5.645 12636384
-1.7349999 0.54500008 5.645 12636384
-1.7249999 0.53500009 5.665 11587792
-1.7249999 0.48500007 5.6750002 11587792
-1.7149999 0.47500005 5.6849999 12636384
-1.7249999 0.48500007 5.6950002 12636384
-1.7249999 0.50500005 5.6750002 12636368
-1.7249999 0.50500005 5.7049999 12636384
-1.7249999 0.51500005 5.6750002 11587808
-1.7149999 0.51500005 5.6950002 11587792
-1.7249999 0.54500008 5.6750002 11587792
-1.7149999 0.53500009 5.6849999 12636384
-1.7149999 0.54500008 5.6849999 11587792
-1.7049999 0.47500005 5.6950002 11583696
-1.7049999 0.48500007 5.7049999 11583696
-1.7049999 0.50500005 5.7049999 11583696
-1.6949999 0.50500005 5.7049999 12636368
-1.675 0.48500007 5.6849999 12636384
-1.6849999 0.47500005 5.6950002 12636368
-1.6849999 0.48500007 5.6950002 12636368
-1.675 0.47500005 5.6950002 13684960
-1.675 0.50500005 5.6950002 12636384
-1.7049999 0.51500005 5.6950002 11583696
-1.7049999 0.53500009 5.6950002 11583696
-1.7049999 0.54500008 5.6950002 11583696
-1.6849999 0.51500005 5.6950002 12636368
-1.675 0.51500005 5.6950002 12636384
-1.6849999 0.53500009 5.6950002 12636368
-1.6849999 0.54500008 5.6950002 12636368
-1.675 0.53500009 5.6950002 12636384
-1.675 0.54500008 5.6950002 12636384
-1.7449999 0.55500007 5.625 12636384
-1.7349999 0.55500007 5.6550002 12640480
-1.7449999 0.57500005 5.6350002 11587808
-1.7449999 0.58500004 5.645 11587808
-1.7349999 0.57500005 5.6550002 12636384
-1.7449999 0.60500008 5.645 11587808
-1.7349999 0.59500009 5.665 12636384
-1.7349999 0.60500008 5.6550002 11587808
-1.7449999 0.61500007 5.6350002 11587808
-1.7349999 0.62500006 5.6550002 12636384
-1.7249999 0.62500006 5.665 11587808
-1.7349999 0.57500005 5.6849999 11587808
-1.7249999 0.56500006 5.6750002 11587792
-1.7149999 0.56500006 5.6950002 12636368
-1.7249999 0.58500004 5.7049999 12636384
-1.7349999 0.59500009 5.6849999 11587808
-1.7249999 0.60500008 5.6750002 11587808
-1.7149999 0.60500008 5.6849999 12636384
-1.7149999 0.59500009 5.6950002 12636368
-1.7149999 0.62500006 5.6849999 12636384
-1.7049999 0.56500006 5.6950002 11583696
-1.6949999 0.56500006 5.7049999 12636368
-1.7049999 0.58500004 5.7049999 11583696
-1.6949999 0.58500004 5.7049999 12636368
-1.675 0.56500006 5.6950002 12636384
-1.675 0.58500004 5.7049999 12636384
-1.7049999 0.59500009 5.7049999 11583696
-1.6949999 0.59500009 5.7049999 12636368
-1.7049999 0.61500007 5.7049999 11583696
-1.7049999 0.62500006 5.6950002 11583696
-1.6949999 0.61500007 5.7049999 12636368
-1.6949999 0.62500006 5.7049999 12636368
-1.675 0.59500009 5.7049999 12636384
-1.675 0.61500007 5.7049999 12636384
-1.675 0.62500006 5.7049999 12636384
-1.635 0.48500007 5.665 13689072
-1.635 0.51500005 5.665 13689072
-1.6149999 0.48500007 5.6550002 14741744
-1.6149999 0.49500006 5.6550002 14741744
-1.5949999 0.48500007 5.6350002 14741744
-1.5949999 0.49500006 5.6350002 14741744
-1.5949999 0.51500005 5.625 14741744
-1.6149999 0.51500005 5.6550002 14741744
-1.6149999 0.52500004 5.6550002 14741744
-1.6149999 0.54500008 5.6550002 14741744
-1.5949999 0.52500004 5.6350002 14741744
-1.5949999 0.54500008 5.645 14741744
-1.655 0.48500007 5.6750002 13689056
-1.655 0.50500005 5.6750002 13689056
-1.635 0.50500005 5.6750002 13689072
-1.655 0.51500005 5.6849999 13684960
-1.655 0.53500009 5.6849999 13689056
-1.655 0.54500008 5.6849999 13689056
-1.635 0.53500009 5.6750002 13689072
-1.635 0.54500008 5.6750002 13689072
-1.6149999 0.56500006 5.665 14741744
-1.6149999 0.57500005 5.665 14741744
-1.5949999 0.55500007 5.645 14741744
-1.5949999 0.57500005 5.645 14741744
-1.5949999 0.58500004 5.6350002 14741744
-1.6149999 0.59500009 5.665 14741744
-1.6149999 0.60500008 5.6550002 14741744
-1.6149999 0.62500006 5.665 14741744
-1.5949999 0.60500008 5.6350002 14741744
-1.5949999 0.62500006 5.645 14741744
-1.655 0.56500006 5.6849999 12636384
-1.655 0.57500005 5.6849999 13689056
-1.635 0.56500006 5.6750002 13689072
-1.635 0.57500005 5.6750002 13689072
-1.655 0.59500009 5.6849999 12636384
-1.655 0.61500007 5.6950002 12640480
-1.655 0.62500006 5.6950002 12640480
-1.635 0.59500009 5.6750002 13689072
-1.635 0.60500008 5.6750002 13689072
-1.635 0.62500006 5.6750002 13689072
-1.5549999 -0.0049999403 5.5450001 14737632
-1.5549999 0.02500006 5.5450001 14741744
-1.5549999 0.03500006 5.5349998 14741744
-1.5549999 0.065000057 5.5450001 15790320
-1.5549999 0.055000059 5.5549998 15790320
-1.535 -0.0049999403 5.5450001 13689056
-1.545 0.02500006 5.5450001 14737632
-1.525 -0.0049999403 5.5450001 12636368
-1.545 0.0050000595 5.5549998 14737632
-1.525 0.0050000595 5.5549998 12632256
-1.515 0.0050000595 5.5549998 10530992
-1.525 0.02500006 5.5549998 12632256
-1.515 0.02500006 5.5650001 10530992
-1.545 0.03500006 5.5450001 14741744
-1.545 0.055000059 5.5549998 14741744
-1.545 0.065000057 5.5650001 14741744
-1.525 0.03500006 5.5549998 11583680
-1.515 0.03500006 5.5650001 11579568
-1.525 0.055000059 5.5650001 11583680
-1.525 0.065000057 5.5549998 11583680
-1.515 0.055000059 5.5650001 10530992
-1.515 0.065000057 5.5750003 10530992
-1.5749999 0.095000058 5.5650001 15790320
-1.5549999 0.08500006 5.5549998 15790320
-1.5549999 0.095000058 5.5650001 15790320
-1.5749999 0.11500006 5.5549998 15790320
-1.5749999 0.12500006 5.5750003 14741744
-1.5649999 0.11500006 5.5650001 15790320
-1.5649999 0.12500006 5.5650001 15790320
-1.5649999 0.14500006 5.5750003 14741744
-1.545 0.08500006 5.5549998 15790320
-1.545 0.095000058 5.5650001 15790320
-1.535 0.095000058 5.5650001 11579584
-1.525 0.08500006 5.5650001 11583680
-1.515 0.08500006 5.5750003 10530992
-1.515 0.095000058 5.585 10530992
-1.545 0.12500006 5.5650001 13684960
-1.545 0.11500006 5.5750003 13689056
-1.535 0.11500006 5.5750003 10530992
-1.535 0.12500006 5.5750003 11579584
-1.545 0.14500006 5.5549998 13684960
-1.525 0.11500006 5.585 11579568
-1.515 0.12500006 5.5750003 11579568
-1.525 0.14500006 5.5650001 11579584
-1.515 0.14500006 5.5750003 10530992
-1.505 -0.0049999403 5.5450001 11579568
-1.4949999 -0.0049999403 5.5549998 10530992
-1.4949999 0.0050000595 5.5650001 10530992
-1.505 0.02500006 5.5750003 10530992
-1.505 0.03500006 5.585 10530992
-1.505 0.055000059 5.585 10530992
-1.505 0.065000057 5.585 10530992
-1.505 0.095000058 5.585 10530992
-1.505 0.11500006 5.585 10530992
-1.5849999 0.14500006 5.605 14741744
-1.4949999 0.02500006 5.5950003 10530992
-1.4949999 0.03500006 5.5950003 10530992
-1.4949999 0.055000059 5.6150002 10530992
-1.4949999 0.065000057 5.6150002 11579568
-1.4849999 0.03500006 5.6150002 10530992
-1.4849999 0.055000059 5.625 10530992
-1.4849999 0.065000057 5.625 10530992
-1.4749999 0.055000059 5.625 10530992
-1.4749999 0.065000057 5.625 10530992
-1.4649999 0.03500006 5.5950003 10530992
-1.4549999 0.055000059 5.625 10530992
-1.4549999 0.065000057 5.6350002 10530992
-1.4549999 0.055000059 5.665 10530992
-1.4449999 0.065000057 5.6550002 10530992
-1.4449999 0.065000057 5.6950002 10530992
-1.505 0.08500006 5.5950003 10530992
-1.4949999 0.08500006 5.605 10530992
-1.4949999 0.095000058 5.5950003 10530992
-1.4849999 0.08500006 5.6150002 10530992
-1.4849999 0.095000058 5.6150002 10530992
-1.4749999 0.095000058 5.625 10530992
-1.4749999 0.08500006 5.6350002 10530992
-1.505 0.12500006 5.5950003 10530992
-1.4949999 0.11500006 5.605 10530992
-1.4949999 0.12500006 5.605 10530992
-1.505 0.14500006 5.5950003 10530992
-1.4949999 0.14500006 5.605 10530992
-1.4849999 0.11500006 5.625 10530992
-1.4849999 0.12500006 5.625 10530992
-1.4849999 0.14500006 5.6150002 10530992
-1.4749999 0.11500006 5.645 10530992
-1.4749999 0.12500006 5.6350002 10530992
-1.4749999 0.14500006 5.645 10530992
-1.4649999 0.08500006 5.645 10530992
-1.4549999 0.08500006 5.665 10530992
-1.4649999 0.095000058 5.645 10530992
-1.4549999 0.095000058 5.665 10530992
-1.4649999 0.11500006 5.6550002 10530992
-1.4649999 0.12500006 5.6550002 10530992
-1.4649999 0.14500006 5.665 10530992
-1.4449999 0.08500006 5.6849999 10530992
-1.4449999 0.095000058 5.6950002 10530992
-1.4549999 0.11500006 5.6750002 10530992
-1.4549999 0.13500006 5.6750002 10530992
-1.4549999 0.14500006 5.6849999 10530992
-1.4449999 0.11500006 5.6950002 10530992
-1.4449999 0.13500006 5.6849999 10530992
-1.4449999 0.14500006 5.6849999 10530992
-1.4349999 0.13500006 5.7049999 10530992
-1.4349999 0.14500006 5.7049999 10530992
-1.4349999 0.11500006 5.7150002 10530992
-1.5649999 0.20500006 5.585 14741744
-1.545 0.15500006 5.5650001 13684960
-1.545 0.17500006 5.5750003 13684960
-1.545 0.18500006 5.5750003 13684944
-1.535 0.17500006 5.5750003 11579584
-1.535 0.18500006 5.5750003 11579584
-1.525 0.15500006 5.5650001 11579568
-1.515 0.15500006 5.5750003 11579568
-1.525 0.17500006 5.585 11579584
-1.525 0.18500006 5.585 10530992
-1.545 0.20500006 5.5650001 13684960
-1.535 0.20500006 5.5750003 11579584
-1.545 0.21500006 5.5750003 13684960
-1.535 0.21500006 5.5750003 11579584
-1.525 0.20500006 5.585 11579584
-1.525 0.21500006 5.585 11579584
-1.5549999 0.24500006 5.585 13684960
-1.5549999 0.26500005 5.585 13689056
-1.545 0.23500006 5.5750003 13684960
-1.535 0.23500006 5.5750003 11579584
-1.535 0.24500006 5.585 11583680
-1.535 0.26500005 5.585 11579584
-1.525 0.23500006 5.585 11579584
-1.545 0.27500007 5.5750003 13684960
-1.535 0.27500007 5.5750003 11583680
-1.545 0.29500005 5.585 13684960
-1.535 0.29500005 5.5750003 11583680
-1.5649999 0.15500006 5.5950003 15790320
-1.5649999 0.17500006 5.5950003 15790320
-1.5649999 0.18500006 5.5950003 14741744
-1.5649999 0.21500006 5.5950003 14741744
-1.515 0.17500006 5.605 11579584
-1.515 0.18500006 5.605 11579568
-1.515 0.20500006 5.605 10530992
-1.5749999 0.26500005 5.605 15790320
-1.5649999 0.23500006 5.5950003 15790320
-1.5649999 0.25500005 5.5950003 15790320
-1.5749999 0.28500006 5.6150002 15790320
-1.5749999 0.29500005 5.605 15790320
-1.525 0.25500005 5.5950003 11579584
-1.525 0.26500005 5.5950003 11579584
-1.515 0.25500005 5.605 10531008
-1.515 0.26500005 5.605 10531008
-1.525 0.28500006 5.605 11583680
-1.515 0.28500006 5.6150002 11579584
-1.525 0.29500005 5.605 11579584
-1.515 0.29500005 5.625 11579584
-1.505 0.15500006 5.5950003 10530992
-1.4949999 0.15500006 5.6150002 10530992
-1.505 0.17500006 5.625 10530992
-1.4849999 0.15500006 5.6350002 10530992
-1.4749999 0.16500007 5.6550002 10530992
-1.4849999 0.17500006 5.6350002 10530992
-1.4749999 0.17500006 5.6550002 10530992
-1.505 0.19500005 5.625 10530992
-1.4949999 0.20500006 5.6150002 10530992
-1.505 0.22500005 5.605 11579584
-1.4949999 0.22500005 5.6150002 10531008
-1.4949999 0.20500006 5.645 10530992
-1.4849999 0.19500005 5.6350002 10530992
-1.4749999 0.19500005 5.6550002 10530992
-1.4749999 0.20500006 5.6550002 10530992
-1.4849999 0.22500005 5.6350002 10530992
-1.4749999 0.22500005 5.6550002 10530992
-1.4649999 0.16500007 5.665 10530992
-1.4649999 0.17500006 5.665 10530992
-1.4649999 0.19500005 5.665 10530992
-1.4649999 0.20500006 5.665 10530992
-1.4649999 0.22500005 5.665 10530992
-1.4549999 0.16500007 5.6849999 10530992
-1.4549999 0.17500006 5.6849999 10530992
-1.4449999 0.16500007 5.7049999 10530992
-1.4449999 0.17500006 5.7049999 10530992
-1.4349999 0.16500007 5.7249999 10530992
-1.4349999 0.17500006 5.7249999 10530992
-1.4549999 0.19500005 5.6750002 10530992
-1.4549999 0.20500006 5.6849999 10530992
-1.4549999 0.22500005 5.6849999 10530992
-1.4449999 0.19500005 5.6950002 10530992
-1.4449999 0.20500006 5.6950002 10530992
-1.4449999 0.22500005 5.6950002 10530992
-1.4349999 0.19500005 5.7150002 10530992
-1.4349999 0.20500006 5.7150002 10530992
-1.4349999 0.22500005 5.7150002 10530992
-1.505 0.23500006 5.5950003 10531008
-1.4949999 0.23500006 5.6150002 10531008
-1.505 0.26500005 5.625 10531008
-1.4949999 0.25500005 5.6150002 10531008
-1.4849999 0.23500006 5.6350002 10530992
-1.4749999 0.23500006 5.6550002 10530992
-1.4849999 0.25500005 5.6350002 10530992
-1.4849999 0.26500005 5.6350002 10530992
-1.4749999 0.25500005 5.645 10530992
-1.4749999 0.26500005 5.645 10530992
-1.4949999 0.28500006 5.6150002 10531008
-1.505 0.29500005 5.625 10531008
-1.4949999 0.29500005 5.645 10531008
-1.4849999 0.28500006 5.6350002 10531008
-1.4749999 0.28500006 5.645 10531008
-1.4849999 0.29500005 5.665 10530992
-1.4649999 0.23500006 5.665 10530992
-1.4649999 0.25500005 5.6550002 10530992
-1.4649999 0.26500005 5.665 10530992
-1.4549999 0.23500006 5.6750002 10530992
-1.4549999 0.25500005 5.6750002 10530992
-1.4549999 0.26500005 5.6849999 10530992
-1.4449999 0.23500006 5.6849999 10530992
-1.4449999 0.25500005 5.6849999 10530992
-1.4349999 0.25500005 5.7049999 10530992
-1.4649999 0.28500006 5.6750002 10530992
-1.4549999 0.28500006 5.6950002 10530992
-1.4649999 0.30500007 5.6750002 10530992
-1.4549999 0.30500007 5.6849999 10530992
-1.4449999 0.27500007 5.6950002 10530992
-1.4449999 0.28500006 5.7049999 10530992
-1.4449999 0.30500007 5.7049999 10530992
-1.4349999 0.28500006 5.7150002 10530992
-1.4349999 0.30500007 5.7249999 10530992
-1.415 0.14500006 5.7249999 10530992
-1.415 0.16500007 5.7249999 10530992
-1.415 0.17500006 5.7249999 10530992
-1.405 0.16500007 5.7350001 10530992
-1.405 0.17500006 5.7249999 10530992
-1.415 0.19500005 5.7249999 10530992
-1.415 0.20500006 5.7150002 10530992
-1.415 0.22500005 5.7249999 10530992
-1.405 0.19500005 5.7249999 10530992
-1.405 0.20500006 5.7249999 10530992
-1.395 0.19500005 5.7350001 10530992
-1.395 0.20500006 5.7350001 10530992
-1.405 0.22500005 5.7249999 10530992
-1.395 0.22500005 5.7449999 10530992
-1.425 0.23500006 5.7049999 10530992
-1.415 0.24500006 5.7249999 10530992
-1.425 0.25500005 5.7249999 10530992
-1.405 0.24500006 5.7350001 10530992
-1.395 0.24500006 5.7449999 10530992
-1.405 0.25500005 5.7350001 10530992
-1.395 0.25500005 5.7449999 10530992
-1.425 0.27500007 5.7049999 10530992
-1.415 0.27500007 5.7150002 10530992
-1.425 0.28500006 5.7350001 10530992
-1.425 0.30500007 5.7350001 10530992
-1.405 0.27500007 5.7350001 10530992
-1.405 0.28500006 5.7449999 10530992
-1.405 0.30500007 5.7449999 10530992
-1.5549999 0.31500006 5.585 13684960
-1.535 0.31500006 5.585 11583680
-1.535 0.37500006 5.585 11583680
-1.535 0.38500005 5.585 11583680
-1.5549999 0.40500006 5.585 13684944
-1.5549999 0.44500005 5.585 13684960
-1.5549999 0.46500006 5.585 12636368
-1.535 0.40500006 5.585 11583680
-1.535 0.41500005 5.5750003 11583680
-1.545 0.43500006 5.585 12636368
-1.535 0.43500006 5.5750003 11583680
-1.535 0.44500005 5.585 11583680
-1.535 0.46500006 5.585 11583680
-1.5749999 0.32500005 5.605 15790320
-1.5749999 0.34500006 5.605 15790320
-1.5649999 0.31500006 5.5950003 15790320
-1.5549999 0.32500005 5.5950003 13684960
-1.5549999 0.34500006 5.5950003 13684960
-1.5749999 0.35500005 5.6150002 14741744
-1.5749999 0.37500006 5.605 14741744
-1.5749999 0.38500005 5.605 14741744
-1.5549999 0.35500005 5.5950003 13684960
-1.5549999 0.37500006 5.5950003 12636368
-1.5549999 0.38500005 5.5950003 12636368
-1.545 0.32500005 5.605 11579584
-1.535 0.32500005 5.625 11579584
-1.535 0.34500006 5.5950003 11579584
-1.525 0.31500006 5.605 11579584
-1.515 0.31500006 5.625 11579584
-1.525 0.34500006 5.6150002 11583680
-1.515 0.34500006 5.625 11579584
-1.515 0.32500005 5.6350002 11579584
-1.535 0.35500005 5.5950003 11579584
-1.525 0.35500005 5.605 11583680
-1.515 0.35500005 5.6150002 11579584
-1.525 0.37500006 5.605 11583680
-1.525 0.38500005 5.5950003 11583680
